-0.0247884 0.0305047 -0.0113074
-0.024784 0.0305265 -0.0110932
-0.0247358 0.0305172 -0.010906
-0.0246926 0.0305113 -0.0107158
-0.024633 0.0304938 -0.0105357
-0.0245693 0.0304734 -0.010358
-0.0244994 0.0304486 -0.0101843
-0.0244292 0.0304236 -0.0100106
-0.0243237 0.0303735 -0.00985863
-0.0242033 0.0303128 -0.00971564
-0.0241275 0.0302838 -0.00954547
-0.0239653 0.0301934 -0.00942778
-0.0238027 0.0301028 -0.00931025
-0.0236597 0.030026 -0.00918077
-0.0234633 0.0299114 -0.00908348
-0.0231793 0.0297346 -0.00903911
-0.0229288 0.0295816 -0.00897419
-0.0228139 0.0295249 -0.00882713
-0.0226434 0.0294287 -0.00871355
-0.022455 0.0293199 -0.00861061
-0.0222751 0.0292171 -0.00850241
-0.0220984 0.0291165 -0.00839218
-0.021948 0.0290347 -0.00826595
-0.0217569 0.0289239 -0.00816413
-0.0216026 0.0288393 -0.00804008
-0.0213555 0.0286889 -0.00797141
-0.0212385 0.0286308 -0.00782476
-0.0211421 0.0285872 -0.00766578
-0.0210384 0.0285385 -0.00751113
-0.0209702 0.028515 -0.00733532
-0.0208938 0.0284856 -0.00716434
-0.020853 0.0284815 -0.00697221
-0.0207691 0.0284468 -0.00680575
-0.0206941 0.0284184 -0.00663402
-0.0206281 0.0283964 -0.00645693
-0.0205107 0.0283379 -0.00631032
-0.0204073 0.0282895 -0.00615529
-0.0202944 0.0282342 -0.00600589
-0.0201853 0.0281817 -0.00585421
-0.02008 0.0281318 -0.00570022
-0.0199153 0.0280399 -0.00558116
-0.0197846 0.0279722 -0.00544198
-0.0196225 0.0278821 -0.00532118
-0.0194626 0.0277936 -0.00519899
-0.0192931 0.0276983 -0.00508229
-0.0191271 0.0276056 -0.00496339
-0.0189073 0.0274748 -0.00487581
-0.0186606 0.027325 -0.00480369
-0.0184419 0.027195 -0.00471511
-0.0181736 0.02703 -0.00465513
-0.0180308 0.0269537 -0.00452196
-0.0178145 0.0268255 -0.00443139
-0.0175787 0.0266834 -0.00435198
-0.0172851 0.0265006 -0.00430576
-0.0170455 0.026356 -0.00422803
-0.0168511 0.0262433 -0.00412394
-0.0166877 0.0261526 -0.00400183
-0.0165497 0.0260797 -0.003865
-0.0163593 0.02597 -0.0037582
-0.0162036 0.0258847 -0.00363129
-0.0160492 0.0258003 -0.00350357
-0.0159184 0.0257326 -0.00336221
-0.0157422 0.0256329 -0.00324677
-0.0156172 0.0255693 -0.00310187
-0.015443 0.025471 -0.00298503
-0.0153372 0.025421 -0.00282906
-0.0151058 0.0252823 -0.00274466
-0.0149438 0.0251927 -0.00262052
-0.0148251 0.0251336 -0.00247161
-0.0146385 0.0250266 -0.00236125
-0.0144599 0.0249252 -0.00224621
-0.0142505 0.0248022 -0.00214851
-0.0140917 0.0247149 -0.00202193
-0.0139031 0.0246064 -0.00191216
-0.0137182 0.0245008 -0.00180008
-0.0135657 0.0244179 -0.00166964
-0.0132965 0.0242528 -0.00160484
-0.0130688 0.0241169 -0.00151641
-0.0129082 0.0240283 -0.0013901
-0.0126928 0.0239012 -0.00129439
-0.0124469 0.0237525 -0.00121569
-0.012259 0.0236449 -0.00110417
-0.0120563 0.0235267 -0.00100087
-0.0117681 0.0233483 -0.000945136
-0.0116099 0.0232615 -0.000816596
-0.0113289 0.0230883 -0.000756357
-0.0111747 0.0230044 -0.000625302
-0.010916 0.0228469 -0.000552217
-0.0106252 0.0226668 -0.000496752
-0.0190058 0.0244713 -0.0295283
-0.019365 0.0247554 -0.029062
-0.0197521 0.0250594 -0.028578
-0.0201265 0.0253542 -0.028103
-0.020367 0.0255529 -0.0277171
-0.0205166 0.0256865 -0.0273913
-0.0207634 0.0258895 -0.0270021
-0.0209444 0.0260455 -0.0266565
-0.0210662 0.026159 -0.0263501
-0.0211728 0.0262615 -0.0260541
-0.0212761 0.0263617 -0.0257605
-0.021379 0.0264615 -0.0254673
-0.021465 0.0265492 -0.0251855
-0.0215247 0.026618 -0.0249212
-0.021551 0.026663 -0.0246787
-0.0216541 0.0267628 -0.0243864
-0.0217837 0.0268816 -0.0240772
-0.0218563 0.0269596 -0.0238053
-0.0218448 0.0269773 -0.0235882
-0.0218927 0.0270376 -0.0233327
-0.0219497 0.0271043 -0.0230715
-0.0219716 0.0271459 -0.0228332
-0.0219923 0.0271866 -0.0225958
-0.0220873 0.0272804 -0.0223107
-0.022082 0.0273025 -0.0220904
-0.0221665 0.0273888 -0.0218123
-0.0221734 0.0274196 -0.0215845
-0.0222211 0.0274794 -0.0213306
-0.0222509 0.0275265 -0.0210884
-0.0222304 0.0275377 -0.0208785
-0.0222611 0.0275853 -0.020636
-0.0223107 0.0276465 -0.0203815
-0.0223309 0.0276867 -0.020146
-0.0222931 0.0276854 -0.0199476
-0.0224319 0.0278102 -0.0196368
-0.0224578 0.0278543 -0.0193981
-0.0224954 0.0279068 -0.0191521
-0.0225263 0.0279545 -0.0189106
-0.0225183 0.0279744 -0.018694
-0.022557 0.0280276 -0.0184478
-0.0226106 0.0280914 -0.0181923
-0.0226366 0.0281355 -0.0179545
-0.0225798 0.0281205 -0.0177692
-0.022631 0.0281826 -0.0175157
-0.0226493 0.0282211 -0.0172832
-0.0227423 0.028313 -0.0170037
-0.0227761 0.0283625 -0.0167618
-0.0228111 0.0284129 -0.0165193
-0.0228038 0.0284331 -0.0163034
-0.0228743 0.0285088 -0.0160389
-0.0228707 0.0285316 -0.015821
-0.0232453 0.028824 -0.0153666
-0.0236219 0.0291178 -0.0149115
-0.0238107 0.0292776 -0.0145744
-0.0238382 0.0293225 -0.0143382
-0.0241647 0.0295803 -0.0139159
-0.0243303 0.0297235 -0.0135943
-0.0244041 0.0298012 -0.0133301
-0.024579 0.029951 -0.0130033
-0.0247101 0.0300694 -0.0127041
-0.0247498 0.0301228 -0.0124618
-0.0247772 0.0301673 -0.0122273
-0.0248028 0.0302106 -0.011994
-0.0248315 0.030256 -0.011759
-0.0248361 0.0302843 -0.0115389
-0.0248538 0.030322 -0.0113109
-0.0248337 0.0303326 -0.0111063
-0.024821 0.0303485 -0.0108973
-0.0247769 0.0303421 -0.0107076
-0.024719 0.0303258 -0.0105264
-0.0246653 0.0303126 -0.0103427
-0.0245983 0.0302898 -0.0101672
-0.0245203 0.0302592 -0.00999832
-0.0244299 0.0302198 -0.0098371
-0.0243511 0.0301887 -0.00966877
-0.0242256 0.0301243 -0.00952889
-0.0240832 0.0300479 -0.00939922
-0.0239424 0.0299727 -0.00926848
-0.0238296 0.0299175 -0.00912065
-0.0235577 0.029749 -0.00906927
-0.0233022 0.0295924 -0.00900764
-0.0232558 0.0295843 -0.00881932
-0.0229875 0.0294185 -0.00876506
-0.0228276 0.0293298 -0.00864518
-0.0226151 0.0292038 -0.00855684
-0.0225179 0.0291596 -0.00839893
-0.0222715 0.0290094 -0.00833073
-0.0220954 0.0289093 -0.00822005
-0.022066 0.0289133 -0.00802123
-0.021887 0.028811 -0.00791214
-0.021531 0.0285832 -0.00790885
-0.021385 0.0285045 -0.00777955
-0.0212652 0.0284444 -0.00763459
-0.021177 0.0284066 -0.00747076
-0.021094 0.0283725 -0.00730375
-0.0210347 0.0283553 -0.00712261
-0.020982 0.0283427 -0.00693764
-0.020912 0.0283179 -0.00676295
-0.0208287 0.0282836 -0.00659616
-0.0207449 0.0282489 -0.00642969
-0.0206463 0.0282039 -0.0062719
-0.0205334 0.0281486 -0.00612259
-0.0204441 0.0281101 -0.00595926
-0.0203245 0.02805 -0.00581382
-0.0201958 0.0279836 -0.00567366
-0.0200583 0.0279109 -0.00553861
-0.0199187 0.0278368 -0.00540471
-0.0197635 0.0277515 -0.00527991
-0.0195778 0.0276447 -0.00517287
-0.0194196 0.0275574 -0.00504957
-0.0192176 0.0274391 -0.00495178
-0.0190557 0.0273491 -0.00483042
-0.0183207 0.026903 -0.00461067
-0.0180865 0.0267621 -0.00453067
-0.0179006 0.0266552 -0.00442243
-0.0176819 0.0265252 -0.00433312
-0.0174334 0.0263741 -0.0042608
-0.0171628 0.0262075 -0.00420108
-0.0169769 0.0261007 -0.00409218
-0.0168066 0.026005 -0.00397408
-0.0166388 0.0259111 -0.00385437
-0.0164866 0.0258281 -0.00372566
-0.0163789 0.0257767 -0.00357118
-0.0161553 0.0256434 -0.00348325
-0.0160449 0.0255901 -0.00333018
-0.0158823 0.0254999 -0.00320699
-0.015755 0.0254347 -0.00306346
-0.0156027 0.0253518 -0.00293417
-0.0154274 0.0252527 -0.00281788
-0.0152424 0.0251467 -0.00270706
-0.0150955 0.0250676 -0.00257435
-0.0148949 0.0249506 -0.00247213
-0.0147612 0.0248809 -0.00233171
-0.0146023 0.0247934 -0.00220548
-0.0144096 0.024682 -0.00209836
-0.0142368 0.0245848 -0.00197978
-0.0140428 0.0244725 -0.00187312
-0.0138512 0.024362 -0.00176488
-0.0136425 0.0242393 -0.00166621
-0.0133452 0.0240543 -0.00161724
-0.013216 0.0239878 -0.00147336
-0.0130595 0.0239021 -0.00134476
-0.0128537 0.0237816 -0.00124375
-0.0126017 0.0236285 -0.00116851
-0.012423 0.0235272 -0.00105196
-0.0121045 0.0233273 -0.00101346
-0.011934 0.0232318 -0.000891951
-0.0115989 0.0230202 -0.00086225
-0.0108454 0.0225632 -0.000630885
-0.010631 0.0224369 -0.000532859
-0.0191498 0.0243366 -0.0294825
-0.0194401 0.0245714 -0.0290619
-0.0198915 0.0249219 -0.0285353
-0.0202471 0.0252036 -0.0280727
-0.0205418 0.0254414 -0.0276509
-0.0207185 0.0255946 -0.0273073
-0.0209374 0.0257779 -0.0269365
-0.0210422 0.0258794 -0.026641
-0.0211691 0.0259967 -0.0263313
-0.0212474 0.0260791 -0.0260538
-0.0213872 0.0262056 -0.0257361
-0.0215665 0.0263603 -0.0253931
-0.02165 0.0264463 -0.0251129
-0.0216831 0.0264962 -0.024866
-0.021756 0.0265746 -0.0245932
-0.0217796 0.0266176 -0.0243528
-0.0218726 0.0267104 -0.0240673
-0.0219021 0.0267575 -0.0238234
-0.0220021 0.0268552 -0.0235339
-0.021989 0.0268719 -0.023318
-0.0221144 0.0269877 -0.0230124
-0.0221046 0.0270066 -0.0227947
-0.0221431 0.0270602 -0.0225458
-0.0222288 0.0271475 -0.0222666
-0.0221993 0.0271522 -0.0220621
-0.0223138 0.0272601 -0.0217647
-0.0223025 0.0272779 -0.0215486
-0.0223847 0.0273626 -0.0212725
-0.022376 0.0273822 -0.021055
-0.0223587 0.0273957 -0.0208431
-0.0223658 0.0274266 -0.0206157
-0.022435 0.0275019 -0.0203486
-0.0224599 0.0275455 -0.0201101
-0.0224474 0.0275622 -0.0198957
-0.0225411 0.0276549 -0.0196136
-0.0225804 0.0277088 -0.0193664
-0.0226375 0.0277753 -0.019108
-0.0226307 0.0277962 -0.0188904
-0.0226582 0.0278414 -0.0186512
-0.0227341 0.0279213 -0.0183815
-0.0227448 0.0279546 -0.0181532
-0.0226998 0.027948 -0.0179604
-0.0227613 0.0280175 -0.0177003
-0.0227458 0.028032 -0.017489
-0.0228532 0.0281343 -0.0172002
-0.022858 0.0281632 -0.0169765
-0.0228491 0.0281824 -0.0167614
-0.0228346 0.0281976 -0.0165499
-0.0229367 0.0282959 -0.0162653
-0.0229027 0.0282971 -0.0160664
-0.0229911 0.0283856 -0.0157908
-0.0231668 0.0285365 -0.0154608
-0.023431 0.0287504 -0.0150758
-0.0238802 0.0290962 -0.0145758
-0.0238465 0.0290975 -0.0143778
-0.0239487 0.0291957 -0.0140951
-0.0241886 0.029392 -0.0137271
-0.024396 0.0295652 -0.0133796
-0.0245048 0.029668 -0.0130938
-0.0246051 0.0297646 -0.0128136
-0.0247624 0.0299019 -0.0124982
-0.0248803 0.030011 -0.0122076
-0.0248539 0.0300173 -0.0120065
-0.024866 0.030051 -0.0117817
-0.0248393 0.0300571 -0.0115809
-0.0248961 0.0301227 -0.0113287
-0.0248703 0.0301293 -0.0111276
-0.0248896 0.030168 -0.0108988
-0.02483 0.0301506 -0.0107186
-0.0248054 0.0301581 -0.010517
-0.0247509 0.0301442 -0.0103338
-0.0246887 0.0301249 -0.0101553
-0.0246202 0.0301011 -0.00998061
-0.024526 0.030059 -0.00982172
-0.0244415 0.0300238 -0.00965687
-0.0243307 0.0299699 -0.00950803
-0.0242065 0.0299064 -0.00936731
-0.0240755 0.0298381 -0.00923066
-0.0239018 0.0297395 -0.00911982
-0.0237592 0.0296629 -0.00899002
-0.0236215 0.0295899 -0.0088572
-0.0234418 0.029487 -0.00874968
-0.0231739 0.0293214 -0.00869529
-0.0229401 0.0291801 -0.00862003
-0.0227768 0.0290888 -0.00850216
-0.0225888 0.0289802 -0.00839892
-0.0224329 0.0288942 -0.00827628
-0.0222786 0.0288094 -0.00815262
-0.0221495 0.0287426 -0.00801368
-0.0220349 0.0286861 -0.00786595
-0.0217511 0.0285093 -0.00781953
-0.0215202 0.0283702 -0.00774114
-0.0213964 0.0283072 -0.0075986
-0.0213359 0.0282891 -0.00741823
-0.0212568 0.0282578 -0.00724899
-0.021207 0.0282473 -0.00706228
-0.0211302 0.0282177 -0.00689164
-0.0210588 0.0281919 -0.00671779
-0.0209716 0.0281547 -0.00655341
-0.0209019 0.0281301 -0.00637858
-0.0207748 0.0280648 -0.00623774
-0.0206862 0.0280268 -0.00607401
-0.0205635 0.0279645 -0.00593056
-0.0204427 0.0279036 -0.00578577
-0.0203211 0.0278421 -0.00564148
-0.0201738 0.0277625 -0.00551221
-0.0200382 0.0276911 -0.00537602
-0.0198756 0.0276006 -0.00525555
-0.019711 0.0275086 -0.00513618
-0.01954 0.0274122 -0.00502039
-0.0193512 0.0273031 -0.00491496
-0.0191229 0.0271661 -0.00483239
-0.0189461 0.0270656 -0.00471959
-0.0185916 0.0268391 -0.00471023
-0.0184117 0.0267364 -0.00459887
-0.0182261 0.0266298 -0.00449061
-0.0179717 0.0264743 -0.00442224
-0.0177893 0.0263699 -0.00431185
-0.0175451 0.0262218 -0.00423708
-0.0172672 0.0260498 -0.00418161
-0.0170816 0.0259431 -0.00407254
-0.0169247 0.0258569 -0.0039467
-0.0167513 0.0257589 -0.00383035
-0.0166322 0.0256994 -0.0036825
-0.0164454 0.025592 -0.00357359
-0.0163012 0.0255147 -0.00344009
-0.0161528 0.0254345 -0.00330883
-0.015989 0.0253434 -0.00318637
-0.0158323 0.0252574 -0.00305968
-0.01571 0.0251956 -0.00291321
-0.0155419 0.0251015 -0.00279289
-0.0153876 0.0250171 -0.00266457
-0.0151649 0.0248844 -0.00257509
-0.015021 0.0248075 -0.00244057
-0.0148622 0.0247199 -0.00231447
-0.0146574 0.0245999 -0.00221433
-0.014477 0.0244972 -0.00210023
-0.0143082 0.0244027 -0.00197938
-0.0141861 0.0243411 -0.00183199
-0.0139628 0.0242081 -0.00174177
-0.0138023 0.0241194 -0.0016159
-0.0135648 0.0239764 -0.00153332
-0.0133897 0.0238775 -0.00141534
-0.0131697 0.0237469 -0.00132255
-0.0129246 0.0235986 -0.00124362
-0.0127478 0.0234985 -0.00112618
-0.0124169 0.0232896 -0.00109498
-0.0118428 0.0229587 -0.000765525
-0.0115806 0.0227984 -0.000694925
-0.0113677 0.0226729 -0.00059661
-0.0105725 0.0221862 -0.000387438
-0.0191234 0.0240793 -0.0295497
-0.0195952 0.024445 -0.0290087
-0.0200011 0.0247631 -0.0285122
-0.0203173 0.0250168 -0.0280756
-0.0206226 0.0252626 -0.0276467
-0.0208862 0.0254783 -0.0272459
-0.0210263 0.0256054 -0.0269269
-0.0211628 0.0257297 -0.0266106
-0.0213509 0.0258911 -0.0262606
-0.0214007 0.0259532 -0.0260018
-0.0215206 0.0260655 -0.0256973
-0.0216741 0.0262019 -0.0253711
-0.0217429 0.0262775 -0.0251005
-0.0218596 0.0263874 -0.0247989
-0.0219062 0.0264471 -0.0245433
-0.021908 0.0264746 -0.0243171
-0.0220152 0.0265776 -0.0240225
-0.0220523 0.0266303 -0.0237736
-0.0221231 0.0267072 -0.0235031
-0.0221478 0.026751 -0.0232626
-0.0222144 0.0268247 -0.0229953
-0.0222554 0.0268802 -0.0227446
-0.0222885 0.0269299 -0.0224993
-0.0223311 0.0269864 -0.022248
-0.0223655 0.0270371 -0.0220021
-0.022398 0.0270863 -0.0217576
-0.022508 0.0271911 -0.0214634
-0.0225153 0.0272222 -0.0212356
-0.022539 0.0272651 -0.0209973
-0.0225533 0.0273012 -0.0207652
-0.0226424 0.0273909 -0.0204852
-0.0226131 0.0273958 -0.0202814
-0.0226443 0.0274439 -0.0200389
-0.0226689 0.0274873 -0.0198008
-0.022688 0.0275268 -0.0195663
-0.0226789 0.0275461 -0.01935
-0.0228033 0.0276608 -0.0190488
-0.0227754 0.0276665 -0.0188447
-0.0228056 0.0277139 -0.0186038
-0.0228573 0.0277766 -0.0183494
-0.0228866 0.0278232 -0.0181094
-0.0228557 0.0278268 -0.0179076
-0.0229248 0.0279018 -0.0176428
-0.0229577 0.027951 -0.0174009
-0.0229607 0.0279787 -0.0171781
-0.023002 0.0280338 -0.0169313
-0.0229579 0.0280278 -0.0167384
-0.023052 0.0281207 -0.0164587
-0.0230272 0.0281285 -0.0162539
-0.0230434 0.0281656 -0.0160234
-0.023023 0.0281765 -0.015816
-0.023093 0.028252 -0.0155521
-0.0232971 0.0284233 -0.0152046
-0.0236536 0.0287033 -0.0147623
-0.0238651 0.0288797 -0.014411
-0.0239195 0.0289439 -0.0141581
-0.0242173 0.0291818 -0.0137538
-0.0243232 0.0292828 -0.0134694
-0.0244775 0.0294182 -0.0131552
-0.0246154 0.0295419 -0.0128515
-0.0247204 0.029642 -0.0125684
-0.024728 0.0296726 -0.012346
-0.0248906 0.0298138 -0.0120278
-0.0249095 0.0298524 -0.0117988
-0.024946 0.0299036 -0.011559
-0.024929 0.0299165 -0.0113523
-0.0249258 0.0299393 -0.0111372
-0.0249526 0.0299836 -0.0109038
-0.0249142 0.0299812 -0.0107106
-0.0248773 0.02998 -0.0105164
-0.0248213 0.0299651 -0.0103341
-0.0247745 0.0299568 -0.0101462
-0.024699 0.029928 -0.00997587
-0.024625 0.0299003 -0.00980457
-0.024544 0.0298676 -0.00963758
-0.0244302 0.0298114 -0.00949065
-0.0243104 0.0297511 -0.00934722
-0.0241815 0.0296842 -0.0092093
-0.0239997 0.0295798 -0.00910341
-0.0238847 0.0295229 -0.00895689
-0.0236986 0.0294153 -0.00885341
-0.0235349 0.0293237 -0.00873622
-0.0232986 0.0291804 -0.00866277
-0.023209 0.0291416 -0.00850055
-0.0229267 0.0289657 -0.00845449
-0.0227922 0.0288949 -0.00831915
-0.0225637 0.0287573 -0.00824025
-0.0224217 0.0286812 -0.00810922
-0.022293 0.0286146 -0.00797008
-0.0220507 0.0284672 -0.00789899
-0.0218607 0.028357 -0.00779637
-0.0216623 0.0282409 -0.0076986
-0.021526 0.0281689 -0.00756355
-0.0214668 0.0281518 -0.00738244
-0.0213962 0.0281265 -0.00720814
-0.0213426 0.0281134 -0.0070237
-0.0212844 0.028097 -0.00684206
-0.0212022 0.0280635 -0.00667468
-0.0211075 0.0280211 -0.0065147
-0.021025 0.0279873 -0.00634753
-0.0209268 0.0279425 -0.00618962
-0.0208334 0.027901 -0.00602881
-0.0206882 0.0278227 -0.00589862
-0.0205826 0.0277725 -0.005745
-0.0204228 0.027684 -0.0056232
-0.0202928 0.0276165 -0.00548379
-0.0201456 0.0275368 -0.00535443
-0.0199838 0.0274468 -0.00523353
-0.0198124 0.02735 -0.00511815
-0.0196203 0.0272385 -0.00501478
-0.0194119 0.0271155 -0.0049208
-0.0193221 0.0270766 -0.0047573
-0.0189766 0.0268564 -0.00474302
-0.0187284 0.0267051 -0.00467169
-0.0184895 0.0265605 -0.00459474
-0.0182925 0.0264456 -0.00449314
-0.0180816 0.0263209 -0.00439946
-0.0178656 0.0261927 -0.00430857
-0.0176528 0.0260666 -0.00421564
-0.0173525 0.0258786 -0.00417323
-0.0171832 0.0257834 -0.00405475
-0.017017 0.0256905 -0.0039343
-0.0168981 0.0256311 -0.00378644
-0.0167291 0.0255362 -0.00366744
-0.016593 0.0254646 -0.00352938
-0.0164506 0.0253886 -0.00339482
-0.0162479 0.0252699 -0.00329483
-0.0160996 0.0251897 -0.00316348
-0.0159526 0.0251105 -0.00303125
-0.0158293 0.025048 -0.0028854
-0.0156467 0.0249435 -0.0027734
-0.0154785 0.0248492 -0.00265301
-0.0152831 0.0247357 -0.002548
-0.01516 0.0246734 -0.00240171
-0.0149727 0.0245657 -0.00229182
-0.0147852 0.0244579 -0.00218187
-0.0146289 0.0243721 -0.00205414
-0.0144571 0.0242753 -0.00193509
-0.0142551 0.0241572 -0.00183297
-0.0141203 0.0240867 -0.00169267
-0.0138327 0.0239081 -0.00163864
-0.0136266 0.0237872 -0.00153832
-0.0134433 0.0236824 -0.00142496
-0.0133088 0.0236121 -0.00128406
-0.0130345 0.023443 -0.00122161
-0.0128277 0.0233217 -0.00112105
-0.0126212 0.0232006 -0.00102008
-0.0123644 0.0230439 -0.000947201
-0.0121566 0.0229219 -0.00084658
-0.0119401 0.0227937 -0.000750719
-0.011637 0.0226044 -0.000702936
-0.0114711 0.022512 -0.000578427
-0.011174 0.022327 -0.000526834
-0.01085 0.022123 -0.000489884
-0.0105972 0.0219694 -0.000413073
-0.0192249 0.023914 -0.0295321
-0.0197404 0.0243115 -0.0289621
-0.0200947 0.0245929 -0.0284997
-0.0204155 0.0248502 -0.02806
-0.0207605 0.0251248 -0.0276049
-0.0209467 0.0252851 -0.027255
-0.0211831 0.0254816 -0.0268726
-0.0212307 0.0255421 -0.0266148
-0.0213967 0.0256879 -0.0262793
-0.0215537 0.0258271 -0.02595
-0.0216598 0.0259297 -0.0256546
-0.0217156 0.0259961 -0.0253923
-0.0218758 0.0261374 -0.025062
-0.0219463 0.0262143 -0.0247906
-0.0220186 0.0262925 -0.0245181
-0.022061 0.0263492 -0.0242655
-0.0220798 0.0263889 -0.0240284
-0.022144 0.0264612 -0.0237619
-0.022263 0.0265728 -0.02346
-0.0222819 0.0266125 -0.0232234
-0.0223147 0.0266621 -0.0229779
-0.0224033 0.0267517 -0.0226964
-0.0224167 0.0267874 -0.0224638
-0.02244 0.0268303 -0.022225
-0.0224908 0.0268927 -0.0219685
-0.0225823 0.0269843 -0.0216861
-0.0226361 0.0270489 -0.0214281
-0.0226287 0.0270696 -0.0212097
-0.0226737 0.0271278 -0.0209577
-0.022689 0.0271647 -0.0207249
-0.0227176 0.0272111 -0.0204839
-0.0227532 0.0272626 -0.0202384
-0.0227706 0.0273009 -0.0200048
-0.0228162 0.0273594 -0.0197533
-0.0228452 0.027406 -0.0195125
-0.02287 0.0274497 -0.0192746
-0.0229758 0.0275512 -0.0189853
-0.0229381 0.0275501 -0.0187875
-0.0229417 0.0275784 -0.0185635
-0.0230007 0.0276463 -0.0183045
-0.0230245 0.0276891 -0.018068
-0.0229713 0.0276768 -0.0178804
-0.0230417 0.0277529 -0.0176147
-0.0230256 0.027767 -0.0174038
-0.0230923 0.0278404 -0.0171408
-0.0231046 0.0278748 -0.0169123
-0.023086 0.0278871 -0.0167033
-0.0231206 0.0279375 -0.016461
-0.023167 0.0279963 -0.0162114
-0.0231644 0.02802 -0.0159928
-0.0231764 0.0280541 -0.0157651
-0.023151 0.0280616 -0.015561
-0.0232638 0.0281677 -0.0152705
-0.0233795 0.028276 -0.0149784
-0.0236855 0.0285202 -0.0145679
-0.0239265 0.0287179 -0.0141984
-0.0240719 0.0288472 -0.013889
-0.0242703 0.0290143 -0.0135469
-0.0244082 0.0291383 -0.0132427
-0.0244853 0.0292186 -0.0129766
-0.0247344 0.0294219 -0.012604
-0.0247116 0.0294308 -0.0124004
-0.024901 0.0295913 -0.0120655
-0.0249224 0.0296318 -0.0118348
-0.0249605 0.0296842 -0.0115939
-0.024986 0.0297276 -0.011361
-0.0249456 0.0297239 -0.0111688
-0.0249947 0.0297841 -0.0109216
-0.0249659 0.0297887 -0.0107224
-0.0249321 0.0297896 -0.0105264
-0.0249024 0.0297935 -0.0103279
-0.0248414 0.0297752 -0.0101487
-0.0247825 0.0297582 -0.00996819
-0.0247058 0.0297286 -0.00979855
-0.024619 0.0296917 -0.00963513
-0.0245302 0.0296534 -0.00947288
-0.0244028 0.0295876 -0.00933415
-0.0242958 0.0295363 -0.00918293
-0.0241587 0.0294636 -0.00904994
-0.024021 0.0293905 -0.0089172
-0.0238191 0.0292716 -0.00882337
-0.0236594 0.0291828 -0.00870375
-0.0234807 0.0290804 -0.00859554
-0.023293 0.0289717 -0.00849262
-0.0230816 0.0288462 -0.0084038
-0.0229453 0.028774 -0.00826962
-0.022708 0.0286301 -0.00819608
-0.0226467 0.0286114 -0.00801661
-0.0223834 0.0284489 -0.00795834
-0.0222631 0.0283882 -0.00781414
-0.0220277 0.0282456 -0.00773879
-0.0218498 0.028144 -0.0076288
-0.0217374 0.028089 -0.00747955
-0.0216271 0.0280355 -0.00732904
-0.0215413 0.0279994 -0.00716388
-0.0215149 0.0280057 -0.00696325
-0.0214276 0.0279685 -0.00679898
-0.0213264 0.0279215 -0.00664292
-0.0212462 0.0278894 -0.00647439
-0.0211554 0.0278498 -0.00631216
-0.021074 0.0278168 -0.00614433
-0.020949 0.0277528 -0.00600231
-0.020831 0.0276939 -0.00585602
-0.0206997 0.0276254 -0.0057176
-0.0205821 0.0275668 -0.00557096
-0.0204322 0.0274851 -0.00544334
-0.0202829 0.0274039 -0.00531524
-0.0200985 0.0272978 -0.00520767
-0.0199073 0.0271868 -0.00510396
-0.0196984 0.0270633 -0.00501045
-0.01951 0.0269544 -0.00490473
-0.019384 0.0268898 -0.00476243
-0.0190766 0.0266964 -0.00472592
-0.0187507 0.0264899 -0.00469992
-0.0185314 0.0263591 -0.00461149
-0.0183965 0.0262881 -0.0044738
-0.0181729 0.0261543 -0.00438754
-0.0179259 0.026004 -0.00431464
-0.0177409 0.0258976 -0.00420559
-0.0174689 0.0257294 -0.00414681
-0.0172729 0.0256153 -0.00404377
-0.017139 0.0255452 -0.00390471
-0.0170043 0.0254746 -0.00376599
-0.0168548 0.0253934 -0.00363581
-0.0167034 0.025311 -0.0035065
-0.0165369 0.0252178 -0.00338586
-0.0163621 0.0251188 -0.00326986
-0.0162143 0.0250388 -0.0031383
-0.0160572 0.0249524 -0.00301187
-0.0159105 0.0248733 -0.00287942
-0.0157788 0.0248049 -0.00273829
-0.0156116 0.0247112 -0.00261739
-0.0154036 0.0245887 -0.00251965
-0.0152365 0.0244952 -0.0023984
-0.0150555 0.0243919 -0.00228491
-0.0149509 0.0243426 -0.00212793
-0.0147556 0.0242292 -0.00202239
-0.0145699 0.0241225 -0.0019112
-0.0144117 0.0240354 -0.0017843
-0.0141828 0.0238982 -0.0016973
-0.0139333 0.0237464 -0.00162172
-0.0137382 0.0236332 -0.00151523
-0.0135813 0.023547 -0.00138704
-0.0133307 0.0233945 -0.00131149
-0.0131098 0.0232631 -0.00121904
-0.0128962 0.0231368 -0.00112227
-0.0127548 0.0230617 -0.000984826
-0.0124203 0.0228499 -0.000955484
-0.0121999 0.0227189 -0.000861951
-0.0119656 0.022578 -0.000775972
-0.0117623 0.0224591 -0.000672506
-0.0104833 0.0216794 -0.000298289
-0.0194936 0.023869 -0.0294038
-0.0198238 0.0241335 -0.0289565
-0.0202333 0.0244551 -0.0284575
-0.0205268 0.024693 -0.0280357
-0.020798 0.0249148 -0.0276293
-0.0210075 0.0250921 -0.0272641
-0.0212135 0.0252669 -0.0269015
-0.0213596 0.0253984 -0.0265788
-0.0215608 0.0255697 -0.0262202
-0.0216776 0.0256802 -0.0259174
-0.021742 0.0257529 -0.0256492
-0.0218864 0.0258831 -0.0253289
-0.0219263 0.0259381 -0.0250773
-0.0220487 0.0260525 -0.0247719
-0.0221267 0.0261348 -0.0244958
-0.0221812 0.0262003 -0.0242352
-0.0222536 0.0262786 -0.0239632
-0.0223359 0.026364 -0.023685
-0.0224083 0.0264422 -0.0234134
-0.0224863 0.0265245 -0.0231384
-0.022474 0.0265418 -0.0229223
-0.0225374 0.0266135 -0.0226571
-0.0225722 0.0266646 -0.0224107
-0.0225709 0.0266898 -0.0221878
-0.0226845 0.0267974 -0.0218909
-0.0226939 0.0268303 -0.0216613
-0.0227771 0.0269161 -0.0213844
-0.0227475 0.0269208 -0.0211804
-0.0228001 0.0269846 -0.0209235
-0.0228355 0.027036 -0.0206779
-0.0228532 0.0270747 -0.0204437
-0.0228067 0.0270673 -0.0202509
-0.0228727 0.0271406 -0.0199861
-0.0228989 0.0271853 -0.019747
-0.0230348 0.0273087 -0.0194379
-0.0230122 0.0273184 -0.0192303
-0.0230454 0.027368 -0.0189873
-0.0230913 0.0274268 -0.0187363
-0.0230755 0.0274412 -0.0185247
-0.0230943 0.0274805 -0.0182912
-0.0231415 0.0275401 -0.0180399
-0.0231586 0.0275782 -0.0178078
-0.0231901 0.0276265 -0.0175667
-0.023191 0.0276529 -0.0173451
-0.0231953 0.0276817 -0.0171215
-0.0232307 0.0277327 -0.0168784
-0.0232135 0.0277461 -0.0166686
-0.0232301 0.0277837 -0.0164376
-0.0232187 0.0278011 -0.0162244
-0.0232928 0.0278798 -0.0159575
-0.0232572 0.02788 -0.0157597
-0.0232677 0.0279131 -0.0155331
-0.0232787 0.0279466 -0.0153062
-0.0233273 0.0280069 -0.0150561
-0.0235576 0.0281972 -0.0146926
-0.0237293 0.0283456 -0.0143662
-0.0239917 0.0285588 -0.0139836
-0.0241225 0.0286779 -0.0136833
-0.0242974 0.0288283 -0.013356
-0.02448 0.0289843 -0.0130243
-0.024717 0.0291791 -0.0126591
-0.0247521 0.0292296 -0.0124195
-0.0248602 0.0293321 -0.0121349
-0.0249173 0.0293982 -0.011882
-0.024986 0.0294726 -0.0116221
-0.0250365 0.0295339 -0.0113738
-0.0249495 0.029497 -0.0112102
-0.0249742 0.0295399 -0.0109779
-0.0249961 0.0295807 -0.0107475
-0.0250046 0.0296119 -0.0105255
-0.0249656 0.0296092 -0.0103327
-0.0249168 0.0295995 -0.010146
-0.024859 0.0295834 -0.00996478
-0.0247866 0.0295568 -0.00979252
-0.0247141 0.0295301 -0.00962039
-0.0246139 0.0294837 -0.00946509
-0.024522 0.0294432 -0.00930472
-0.0243949 0.0293776 -0.00916572
-0.0242676 0.0293118 -0.00902682
-0.0241085 0.0292234 -0.00890714
-0.0239482 0.029134 -0.00878807
-0.0237417 0.0290118 -0.00869684
-0.0236502 0.0289716 -0.00853592
-0.0235166 0.0289014 -0.00840039
-0.0232578 0.0287418 -0.0083403
-0.0230813 0.0286411 -0.00823035
-0.0228585 0.0285073 -0.00814818
-0.0227373 0.0284459 -0.00800471
-0.0225722 0.0283533 -0.00788751
-0.02232 0.0281986 -0.00782251
-0.0221741 0.0281197 -0.00769356
-0.0220037 0.0280233 -0.00757918
-0.021865 0.0279495 -0.00744571
-0.021765 0.0279033 -0.00728902
-0.0216857 0.0278719 -0.00712
-0.0216433 0.0278667 -0.00692897
-0.0215437 0.0278208 -0.00677204
-0.021491 0.0278083 -0.00658717
-0.0213957 0.0277655 -0.00642767
-0.0213069 0.0277273 -0.00626426
-0.0211747 0.0276582 -0.00612654
-0.0210824 0.0276174 -0.00596521
-0.0209479 0.0275467 -0.00582872
-0.0208412 0.0274958 -0.00567575
-0.0206763 0.0274034 -0.00555707
-0.0205492 0.0273378 -0.00541606
-0.0203661 0.0272326 -0.00530786
-0.0201906 0.0271326 -0.00519509
-0.0200104 0.0270295 -0.00508488
-0.0198283 0.0269249 -0.00497567
-0.0196028 0.0267895 -0.00489177
-0.0193522 0.0266363 -0.0048223
-0.0191705 0.0265321 -0.00471238
-0.0188122 0.0263024 -0.0047053
-0.018682 0.0262347 -0.00456499
-0.0184697 0.0261089 -0.00447233
-0.0182429 0.0259726 -0.00438799
-0.0180291 0.0258457 -0.00429583
-0.0178159 0.0257192 -0.00420314
-0.0176142 0.0256009 -0.00410364
-0.0173941 0.0254695 -0.0040146
-0.0172474 0.0253903 -0.00388296
-0.0171047 0.025314 -0.00374888
-0.0169679 0.0252418 -0.00361133
-0.0168393 0.0251755 -0.00346901
-0.0166103 0.0250378 -0.00338435
-0.0164855 0.0249742 -0.00323965
-0.0163542 0.024906 -0.00309856
-0.0161458 0.0247831 -0.0030016
-0.0160401 0.0247329 -0.00284574
-0.0159369 0.0246847 -0.00268836
-0.0157532 0.0245793 -0.0025769
-0.0155101 0.0244318 -0.0024992
-0.0153897 0.0243713 -0.00235141
-0.0151805 0.024248 -0.002254
-0.015037 0.0241711 -0.00211917
-0.0148298 0.0240492 -0.00202034
-0.014669 0.02396 -0.00189511
-0.0144431 0.0238249 -0.00180657
-0.0143185 0.0237615 -0.00166053
-0.0140893 0.0236239 -0.00157356
-0.0138833 0.0235029 -0.00147328
-0.0136851 0.0233874 -0.00136844
-0.0134275 0.0232298 -0.00129687
-0.0132513 0.0231299 -0.00117923
-0.01296 0.0229485 -0.00112618
-0.01281 0.0228673 -0.000993536
-0.0125834 0.0227317 -0.000903742
-0.0123782 0.0226114 -0.000801754
-0.0121523 0.0224763 -0.000711193
-0.0118419 0.0222815 -0.000667611
-0.0109586 0.0217312 -0.000508262
-0.0194599 0.0236064 -0.0294758
-0.0199197 0.0239646 -0.0289426
-0.0202922 0.0242598 -0.0284679
-0.0206196 0.0245225 -0.0280237
-0.0210511 0.0248601 -0.0275114
-0.0211456 0.0249547 -0.0272221
-0.0213783 0.0251489 -0.0268419
-0.0215309 0.0252854 -0.0265149
-0.0216223 0.0253777 -0.0262285
-0.0216585 0.0254303 -0.0259786
-0.0218782 0.025615 -0.0256085
-0.022008 0.0257348 -0.0252978
-0.0220751 0.0258095 -0.0250283
-0.0221622 0.0258986 -0.024746
-0.0222523 0.0259899 -0.0244619
-0.0223555 0.0260904 -0.0241697
-0.0223588 0.0261191 -0.0239427
-0.0224405 0.0262042 -0.0236649
-0.0225476 0.0263075 -0.0233708
-0.0225974 0.0263695 -0.0231141
-0.0226283 0.026418 -0.0228699
-0.0226161 0.0264354 -0.0226538
-0.0226958 0.0265189 -0.0223782
-0.022746 0.0265812 -0.0221221
-0.0227269 0.0265936 -0.0219108
-0.0228156 0.0266835 -0.0216301
-0.0229221 0.0267862 -0.0213382
-0.0229355 0.0268219 -0.0211064
-0.022921 0.0268375 -0.0208927
-0.0229262 0.0268673 -0.0206666
-0.0230032 0.0269487 -0.0203943
-0.0230132 0.0269819 -0.0201654
-0.0230401 0.0270271 -0.0199257
-0.0230595 0.027067 -0.019691
-0.0231023 0.0271237 -0.0194414
-0.0231286 0.0271685 -0.0192026
-0.0231862 0.0272358 -0.018944
-0.0232266 0.0272907 -0.0186964
-0.0231774 0.0272813 -0.0185061
-0.0231971 0.0273213 -0.0182721
-0.0232233 0.0273659 -0.018034
-0.0232367 0.0274014 -0.0178042
-0.0233209 0.0274876 -0.0175298
-0.0232684 0.0274757 -0.017342
-0.0233293 0.0275452 -0.0170826
-0.0233222 0.0275659 -0.0168663
-0.0233794 0.0276326 -0.0166097
-0.0233164 0.0276131 -0.0164288
-0.0233754 0.0276811 -0.0161713
-0.0233953 0.0277211 -0.0159385
-0.0233747 0.027732 -0.0157313
-0.0233679 0.0277528 -0.0155155
-0.0233576 0.0277711 -0.015302
-0.0233736 0.0278082 -0.0150722
-0.0235271 0.0279437 -0.0147567
-0.0236996 0.0280928 -0.0144296
-0.02393 0.0282834 -0.0140668
-0.0241044 0.0284338 -0.0137393
-0.0242307 0.0285497 -0.013442
-0.0243937 0.0286919 -0.0131223
-0.0245739 0.0288463 -0.0127922
-0.0247178 0.0289747 -0.012485
-0.0248495 0.0290943 -0.0121856
-0.0249384 0.0291833 -0.011913
-0.0249368 0.0292075 -0.0116965
-0.0250152 0.0292889 -0.0114308
-0.0250843 0.0293636 -0.011171
-0.0250455 0.0293611 -0.0109779
-0.0250362 0.0293797 -0.0107666
-0.0250357 0.0294046 -0.01055
-0.025009 0.0294107 -0.0103497
-0.0249716 0.0294091 -0.0101559
-0.0249176 0.0293958 -0.00997233
-0.0248637 0.0293824 -0.00978878
-0.0247831 0.02935 -0.0096215
-0.024699 0.029315 -0.00945643
-0.0246048 0.0292729 -0.00929746
-0.0244888 0.0292152 -0.00915173
-0.0243604 0.0291486 -0.00901348
-0.024218 0.0290719 -0.00888371
-0.0240793 0.028998 -0.00875154
-0.023848 0.0288579 -0.0086754
-0.0237234 0.0287941 -0.00853448
-0.0235845 0.0287201 -0.00840214
-0.0233872 0.0286044 -0.00830495
-0.0231891 0.028488 -0.00820812
-0.0229825 0.0283657 -0.00811623
-0.0228589 0.0283026 -0.00797419
-0.0226338 0.0281671 -0.00789314
-0.0225115 0.0281049 -0.00775017
-0.0222801 0.027965 -0.0076725
-0.0221499 0.0278972 -0.00753406
-0.0220054 0.0278193 -0.00740411
-0.021917 0.0277813 -0.00724058
-0.0218388 0.0277507 -0.00707088
-0.0217656 0.0277235 -0.00689828
-0.0216838 0.0276903 -0.00673081
-0.0216129 0.0276648 -0.0065568
-0.0215345 0.027634 -0.00638725
-0.0214176 0.0275758 -0.00624059
-0.0213286 0.0275373 -0.00607733
-0.0212131 0.0274801 -0.00592969
-0.0210649 0.0273995 -0.00580139
-0.0209494 0.0273423 -0.00565366
-0.0207763 0.027244 -0.0055398
-0.0206599 0.0271861 -0.00539248
-0.0204463 0.027059 -0.00530226
-0.0202763 0.026963 -0.00518621
-0.0200511 0.0268277 -0.0051025
-0.019867 0.0267216 -0.00499446
-0.019659 0.0265986 -0.00490025
-0.0195216 0.0265258 -0.00476459
-0.0192219 0.0263375 -0.00472368
-0.0189391 0.0261613 -0.00467257
-0.0187327 0.0260395 -0.00457665
-0.0185022 0.0259005 -0.00449463
-0.0183201 0.025796 -0.0043842
-0.0181002 0.0256646 -0.00429563
-0.0179108 0.0255549 -0.00418918
-0.0176837 0.0254185 -0.00410438
-0.0175081 0.0253187 -0.00398955
-0.0173635 0.0252409 -0.00385673
-0.0172057 0.0251537 -0.00373146
-0.0170522 0.0250697 -0.00360354
-0.0169368 0.0250127 -0.0034536
-0.0167812 0.0249271 -0.00332674
-0.0166243 0.0248407 -0.00320053
-0.0164395 0.0247343 -0.00309023
-0.0162732 0.0246413 -0.00296913
-0.0161245 0.0245606 -0.00283788
-0.0160063 0.0245016 -0.0026891
-0.0158497 0.0244154 -0.00256219
-0.0156154 0.024274 -0.00247951
-0.0154568 0.0241865 -0.00235344
-0.0152756 0.0240828 -0.00224015
-0.0151674 0.024031 -0.00208521
-0.0149648 0.0239122 -0.00198385
-0.0147507 0.0237853 -0.00188883
-0.0145746 0.0236853 -0.00177213
-0.0143682 0.0235638 -0.0016724
-0.0141569 0.0234389 -0.00157532
-0.0139688 0.0233305 -0.00146489
-0.0137854 0.0232253 -0.00135172
-0.013647 0.0231522 -0.00121305
-0.0133132 0.0229404 -0.00118422
-0.0130993 0.0228138 -0.00108764
-0.012939 0.0227251 -0.000960853
-0.0126964 0.0225781 -0.000880076
-0.012557 0.0225043 -0.000741317
-0.0122167 0.0222881 -0.000714725
-0.0119292 0.0221094 -0.000658338
-0.011792 0.0220372 -0.00051788
-0.0111187 0.0216352 -0.000241366
-0.0193912 0.0233183 -0.0295711
-0.020017 0.0237967 -0.0289277
-0.0204693 0.0241498 -0.0284002
-0.0207265 0.0243621 -0.0280024
-0.0210143 0.0245965 -0.0275849
-0.0212855 0.0248187 -0.0271789
-0.0214661 0.0249756 -0.026833
-0.0216488 0.0251339 -0.0264862
-0.0217768 0.0252528 -0.0261757
-0.0218659 0.0253436 -0.0258911
-0.0220332 0.0254907 -0.0255554
-0.022087 0.0255559 -0.0252944
-0.0221731 0.0256445 -0.0250125
-0.022316 0.0257738 -0.0246938
-0.0224201 0.0258753 -0.0244006
-0.0224591 0.0259297 -0.0241502
-0.0224738 0.0259667 -0.0239158
-0.022522 0.0260278 -0.0236597
-0.0226324 0.0261336 -0.0233634
-0.0227035 0.0262111 -0.0230929
-0.0227366 0.0262612 -0.0228473
-0.0227531 0.0262993 -0.0226126
-0.0228142 0.0263695 -0.0223492
-0.0228186 0.026399 -0.0221225
-0.0229195 0.0264978 -0.0218338
-0.0230014 0.0265829 -0.0215575
-0.0230457 0.026641 -0.0213057
-0.023038 0.0266615 -0.0210875
-0.0230327 0.0266839 -0.020868
-0.0230694 0.0267363 -0.0206215
-0.0230712 0.0267637 -0.0203977
-0.0231746 0.0268641 -0.0201087
-0.0231921 0.0269027 -0.0198751
-0.0231291 0.0268835 -0.0196931
-0.0232104 0.026968 -0.0194189
-0.0232573 0.0270277 -0.0191669
-0.0233342 0.0271089 -0.018896
-0.0232905 0.0271035 -0.018702
-0.0232652 0.0271112 -0.0184965
-0.0233242 0.0271795 -0.0182374
-0.0232989 0.0271872 -0.0180321
-0.0233806 0.0272718 -0.017759
-0.0233924 0.0273061 -0.0175304
-0.0234116 0.0273458 -0.0172972
-0.0234284 0.0273837 -0.0170657
-0.0234453 0.0274216 -0.0168343
-0.0234657 0.0274621 -0.0166009
-0.023485 0.0275017 -0.0163682
-0.0234998 0.0275381 -0.0161385
-0.0234608 0.0275358 -0.0159428
-0.0234869 0.0275803 -0.0157062
-0.0234498 0.0275794 -0.0155094
-0.0234398 0.0275979 -0.0152957
-0.0234874 0.0276577 -0.0150461
-0.0235447 0.0277245 -0.0147906
-0.023597 0.0277876 -0.0145384
-0.0237518 0.0279243 -0.0142226
-0.0238755 0.0280385 -0.0139264
-0.0242371 0.0283233 -0.0134826
-0.0243317 0.0284166 -0.0132052
-0.0245425 0.0285932 -0.012856
-0.0246344 0.0286845 -0.0125809
-0.024786 0.0288186 -0.0122691
-0.0248616 0.0288981 -0.0120046
-0.0249522 0.0289884 -0.011731
-0.0250834 0.0291077 -0.0114327
-0.0250758 0.0291276 -0.0112201
-0.0250984 0.0291691 -0.0109891
-0.0250861 0.0291856 -0.0107796
-0.0250708 0.0292 -0.0105721
-0.0250701 0.0292247 -0.0103558
-0.0250342 0.0292243 -0.0101611
-0.0249831 0.029213 -0.00997574
-0.0249323 0.029202 -0.00979019
-0.0248604 0.0291757 -0.00961767
-0.0247765 0.0291409 -0.00945238
-0.0246837 0.0290997 -0.00929257
-0.0245923 0.0290596 -0.00913188
-0.0244772 0.0290024 -0.00898561
-0.0243387 0.0289286 -0.00885344
-0.0242036 0.0288572 -0.00871916
-0.0239729 0.0287175 -0.00864263
-0.0239029 0.0286926 -0.00846872
-0.0236707 0.0285518 -0.0083929
-0.0235584 0.0284967 -0.00824441
-0.0233968 0.0284064 -0.00812561
-0.0231513 0.0282562 -0.00805724
-0.0230547 0.0282123 -0.0078991
-0.0228424 0.0280859 -0.00781034
-0.0227739 0.0280621 -0.00763523
-0.0224435 0.0278513 -0.00761707
-0.0222838 0.0277624 -0.00749632
-0.0221349 0.0276813 -0.00736904
-0.022056 0.0276501 -0.00719984
-0.0219684 0.0276127 -0.00703584
-0.0218928 0.0275839 -0.00686469
-0.0218157 0.0275541 -0.00669437
-0.0217289 0.0275172 -0.00652992
-0.0216441 0.0274818 -0.00636418
-0.021546 0.0274369 -0.0062064
-0.0214574 0.0273988 -0.00604291
-0.0213136 0.0273213 -0.0059121
-0.021204 0.0272682 -0.00576096
-0.0210938 0.0272148 -0.00561011
-0.0208943 0.0270976 -0.00551191
-0.020735 0.027009 -0.00538989
-0.0206172 0.0269501 -0.00524333
-0.0203222 0.0267649 -0.00520079
-0.0201342 0.026656 -0.00509522
-0.0199273 0.0265337 -0.00500052
-0.0197285 0.026417 -0.00490098
-0.0196028 0.0263526 -0.00475844
-0.0193174 0.0261743 -0.00470916
-0.0190273 0.0259928 -0.00466236
-0.0188054 0.0258598 -0.00457551
-0.018633 0.0257621 -0.00445967
-0.018376 0.0256042 -0.00439286
-0.0182147 0.0255144 -0.00427024
-0.0180271 0.025406 -0.0041627
-0.0177742 0.0252511 -0.00409291
-0.0176153 0.025163 -0.00396851
-0.0174467 0.0250681 -0.00384953
-0.0173263 0.0250076 -0.00370265
-0.0171686 0.0249204 -0.00357723
-0.0170434 0.0248564 -0.00343294
-0.0168692 0.0247576 -0.00331681
-0.0166828 0.0246501 -0.00320753
-0.0165486 0.0245797 -0.00306819
-0.0163835 0.0244873 -0.00294645
-0.0162517 0.0244186 -0.00280556
-0.0160846 0.0243249 -0.00268473
-0.0159041 0.0242217 -0.00257148
-0.0157411 0.0241309 -0.00244809
-0.0155513 0.024021 -0.00233987
-0.0154114 0.0239467 -0.00220308
-0.0152762 0.0238756 -0.00206353
-0.0150301 0.0237258 -0.00198692
-0.0148452 0.0236195 -0.00187537
-0.0147128 0.0235505 -0.00173387
-0.0144786 0.0234092 -0.00164993
-0.0142288 0.0232569 -0.00157461
-0.0140698 0.023169 -0.0014478
-0.0138655 0.0230489 -0.00134644
-0.0136587 0.0229272 -0.00124628
-0.0133677 0.0227456 -0.00119337
-0.013235 0.0226765 -0.00105115
-0.0129858 0.0225247 -0.000974302
-0.0127966 0.0224155 -0.000863568
-0.0126082 0.022307 -0.000752196
-0.0123018 0.0221145 -0.000706747
-0.0120557 0.021965 -0.000627239
-0.0118067 0.0218134 -0.000549188
-0.0114674 0.0215979 -0.000521119
-0.011222 0.021449 -0.000440536
-0.0110276 0.0213362 -0.000331346
-0.0108215 0.0212151 -0.000228533
-0.0194815 0.0231448 -0.029561
-0.0201386 0.0236464 -0.0288968
-0.0204615 0.0239064 -0.0284548
-0.0207893 0.02417 -0.0280102
-0.0211064 0.0244257 -0.0275733
-0.0213737 0.0246454 -0.0271698
-0.0214988 0.0247625 -0.0268604
-0.0217464 0.0249678 -0.0264709
-0.0218468 0.0250669 -0.0261785
-0.0219812 0.0251905 -0.025864
-0.0221748 0.0253568 -0.0255111
-0.0221846 0.0253904 -0.0252789
-0.0222717 0.0254798 -0.0249964
-0.0223799 0.0255843 -0.0247002
-0.0225083 0.0257034 -0.0243912
-0.0226 0.025796 -0.0241064
-0.0226142 0.0258326 -0.0238723
-0.0226618 0.0258933 -0.0236167
-0.0227625 0.0259924 -0.0233267
-0.0228253 0.0260639 -0.0230616
-0.0228318 0.026095 -0.0228332
-0.0229092 0.0261771 -0.022559
-0.022993 0.0262637 -0.0222809
-0.0230631 0.0263406 -0.0220119
-0.023078 0.0263775 -0.0217787
-0.0230952 0.0264161 -0.0215443
-0.0231496 0.0264816 -0.0212859
-0.0231941 0.0265398 -0.0210342
-0.0231665 0.0265461 -0.020829
-0.0231586 0.0265666 -0.0206111
-0.0232216 0.0266381 -0.020348
-0.0232764 0.0267036 -0.0200903
-0.0232925 0.0267413 -0.0198575
-0.0233657 0.0268201 -0.0195884
-0.0233236 0.0268159 -0.0193931
-0.0233621 0.0268696 -0.0191465
-0.0233899 0.0269157 -0.0189068
-0.0233848 0.026938 -0.0186883
-0.0234062 0.0269794 -0.0184531
-0.0234084 0.027007 -0.0182301
-0.0234569 0.0270678 -0.0179779
-0.0234793 0.0271099 -0.0177424
-0.0235285 0.0271711 -0.0174901
-0.0235094 0.0271833 -0.0172812
-0.0235152 0.0272134 -0.0170566
-0.0235823 0.0272875 -0.0167935
-0.0235374 0.027281 -0.0166012
-0.0235789 0.0273367 -0.0163546
-0.0235978 0.0273761 -0.0161223
-0.0235972 0.0274015 -0.0159024
-0.0236014 0.0274303 -0.0156796
-0.0235449 0.0274155 -0.015495
-0.0235684 0.0274581 -0.0152603
-0.0236386 0.0275343 -0.0149965
-0.0236101 0.0275395 -0.0147947
-0.0236424 0.0275884 -0.014555
-0.0236458 0.0276165 -0.0143335
-0.0238373 0.0277797 -0.0139949
-0.0239319 0.0278731 -0.013717
-0.0243156 0.028174 -0.0132598
-0.0243877 0.0282513 -0.0129965
-0.024522 0.0283732 -0.0126949
-0.0247237 0.0285434 -0.0123519
-0.0248643 0.0286697 -0.012047
-0.0249397 0.0287492 -0.0117828
-0.0251012 0.0288904 -0.0114657
-0.0251428 0.0289457 -0.0112227
-0.0251238 0.0289574 -0.0110172
-0.0251179 0.0289785 -0.0108038
-0.0250952 0.0289876 -0.0106008
-0.0251235 0.0290333 -0.0103666
-0.0250768 0.0290251 -0.0101784
-0.0250466 0.0290288 -0.00998029
-0.0249963 0.0290181 -0.00979445
-0.024921 0.0289894 -0.00962399
-0.0248508 0.0289645 -0.00945035
-0.0247663 0.0289292 -0.00928546
-0.0246527 0.0288731 -0.00913829
-0.0245478 0.0288233 -0.0089858
-0.0244318 0.0287655 -0.00883995
-0.02429 0.0286893 -0.00870969
-0.024133 0.0286022 -0.0085886
-0.0240052 0.028536 -0.00844972
-0.0238221 0.0284302 -0.00834421
-0.0236706 0.028347 -0.00821943
-0.0234852 0.0282396 -0.0081151
-0.0233356 0.0281579 -0.00798893
-0.0231554 0.0280542 -0.0078811
-0.0230268 0.0279875 -0.00774217
-0.0228633 0.0278958 -0.00762405
-0.022571 0.0277121 -0.00758308
-0.022397 0.0276128 -0.00747101
-0.0222619 0.0275416 -0.00733543
-0.0221588 0.0274931 -0.00718076
-0.0220955 0.027473 -0.00700229
-0.0220099 0.027437 -0.00683713
-0.021937 0.0274102 -0.00666431
-0.0218437 0.0273687 -0.00650372
-0.0217589 0.0273333 -0.00633805
-0.0216712 0.0272958 -0.00617405
-0.0215547 0.0272378 -0.00602713
-0.0214584 0.0271942 -0.00586822
-0.0213052 0.02711 -0.00574288
-0.0211493 0.0270238 -0.00561908
-0.0209696 0.0269206 -0.00550921
-0.0208253 0.0268428 -0.00537829
-0.0206693 0.0267566 -0.00525421
-0.0204429 0.0266202 -0.00517142
-0.0201666 0.0264482 -0.00511769
-0.0199734 0.0263355 -0.00501493
-0.0198034 0.0262394 -0.00489849
-0.0196658 0.0261664 -0.00476294
-0.0193223 0.0259465 -0.00474765
-0.019074 0.0257947 -0.00467637
-0.0189397 0.0257241 -0.00453845
-0.018729 0.025599 -0.00444493
-0.0184387 0.0254171 -0.00439757
-0.0182681 0.0253207 -0.0042803
-0.0180872 0.025217 -0.0041689
-0.0178757 0.0250914 -0.00407512
-0.0177258 0.0250098 -0.00394548
-0.0175525 0.0249114 -0.00382933
-0.0174295 0.0248489 -0.00368396
-0.0172717 0.0247617 -0.00355858
-0.0171079 0.0246702 -0.00343653
-0.0169841 0.0246072 -0.00329139
-0.0168299 0.0245225 -0.00316364
-0.0166579 0.0244252 -0.00304604
-0.016495 0.0243343 -0.00292305
-0.0163482 0.0242549 -0.00279079
-0.0162211 0.0241896 -0.00264709
-0.0160392 0.0240852 -0.0025347
-0.0158392 0.0239681 -0.00243246
-0.0156675 0.023871 -0.00231397
-0.0154886 0.0237689 -0.00219938
-0.0152972 0.0236578 -0.0020918
-0.0151666 0.0235901 -0.00194951
-0.0149163 0.0234371 -0.00187511
-0.0147823 0.0233669 -0.00173457
-0.014595 0.0232589 -0.00162409
-0.0143535 0.0231123 -0.0015441
-0.0141484 0.0229916 -0.00144335
-0.0139897 0.0229039 -0.00131625
-0.013746 0.0227558 -0.00123697
-0.0134332 0.0225586 -0.00119629
-0.0132432 0.0224488 -0.00108629
-0.0131091 0.0223786 -0.000944802
-0.0129377 0.022282 -0.0008241
-0.0126464 0.0221001 -0.000770479
-0.0124606 0.0219933 -0.000657517
-0.0121532 0.0218001 -0.000612339
-0.0113114 0.0212778 -0.000430238
-0.020244 0.0234843 -0.0288765
-0.0204987 0.0236954 -0.0284797
-0.020955 0.0240521 -0.02795
-0.0211137 0.0241937 -0.0276176
-0.0213979 0.0244259 -0.0272029
-0.0216264 0.0246177 -0.0268254
-0.0218591 0.0248126 -0.0264455
-0.0219252 0.0248871 -0.0261757
-0.0220598 0.025011 -0.0258611
-0.0222291 0.02516 -0.025524
-0.022301 0.0252385 -0.0252512
-0.0223794 0.0253216 -0.0249743
-0.0224784 0.0254197 -0.0246842
-0.0226362 0.0255601 -0.0243559
-0.0226846 0.0256216 -0.0240993
-0.0227056 0.0256633 -0.0238608
-0.0227606 0.0257294 -0.0236003
-0.0228381 0.0258118 -0.0233254
-0.0229326 0.0259064 -0.0230397
-0.023033 0.0260052 -0.0227504
-0.0230119 0.0260164 -0.02254
-0.023126 0.0261251 -0.0222423
-0.0230934 0.0261279 -0.0220397
-0.0231968 0.0262287 -0.0217494
-0.0232571 0.0262985 -0.021487
-0.0232939 0.0263513 -0.0212401
-0.0232654 0.0263571 -0.0210353
-0.0233055 0.0264122 -0.0207866
-0.0232884 0.0264261 -0.0205747
-0.0234052 0.0265365 -0.020277
-0.0234015 0.0265599 -0.0200569
-0.0234163 0.0265968 -0.0198249
-0.0234387 0.0266391 -0.0195883
-0.0234662 0.026685 -0.0193485
-0.0234756 0.0267179 -0.0191205
-0.023497 0.0267594 -0.018885
-0.0235298 0.0268091 -0.0186423
-0.0235189 0.0268273 -0.0184276
-0.0235449 0.0268721 -0.0181895
-0.0235426 0.0268964 -0.0179696
-0.0235332 0.0269156 -0.0177543
-0.0235721 0.0269696 -0.0175084
-0.0235956 0.0270125 -0.0172725
-0.0236508 0.0270782 -0.0170167
-0.0236585 0.0271096 -0.0167911
-0.0236915 0.0271593 -0.0165497
-0.0236686 0.0271687 -0.0163436
-0.0237101 0.0272244 -0.0160971
-0.0236854 0.0272325 -0.0158924
-0.0236782 0.0272532 -0.0156767
-0.023665 0.0272695 -0.0154649
-0.0236342 0.0272732 -0.0152643
-0.0236865 0.0273367 -0.0150117
-0.0236461 0.0273334 -0.0148172
-0.023667 0.0273741 -0.0145846
-0.0237278 0.0274436 -0.0143272
-0.0238089 0.0275276 -0.0140573
-0.0237958 0.0275439 -0.0138463
-0.0239931 0.0277113 -0.0135046
-0.0243281 0.0279774 -0.0130779
-0.0245158 0.0281378 -0.0127431
-0.0245647 0.0281986 -0.0124946
-0.0246806 0.0283074 -0.0122048
-0.0249442 0.028522 -0.0118241
-0.0250724 0.0286396 -0.0115274
-0.0251379 0.028712 -0.0112696
-0.0251211 0.0287254 -0.0110627
-0.025142 0.0287659 -0.0108327
-0.0251125 0.0287701 -0.0106339
-0.0251434 0.0288177 -0.010398
-0.0251368 0.0288383 -0.0101852
-0.0251098 0.0288444 -0.00998504
-0.0250445 0.0288229 -0.00980843
-0.0249914 0.0288102 -0.00962427
-0.0249169 0.0287821 -0.00945328
-0.0248334 0.0287476 -0.00928778
-0.024728 0.0286974 -0.00913559
-0.0246357 0.0286566 -0.0089754
-0.0245159 0.028596 -0.00883189
-0.024386 0.0285283 -0.00869442
-0.0242405 0.0284493 -0.00856643
-0.0241011 0.0283748 -0.00843457
-0.0239357 0.0282816 -0.00831834
-0.0238136 0.0282194 -0.0081759
-0.0235797 0.0280772 -0.00810076
-0.0234506 0.0280101 -0.00796233
-0.0232594 0.0278985 -0.00786113
-0.023098 0.0278082 -0.00774198
-0.0228945 0.0276878 -0.00764791
-0.0227079 0.0275796 -0.00754351
-0.0225099 0.0274631 -0.00744584
-0.0223895 0.0274023 -0.00730155
-0.0222904 0.0273566 -0.00714448
-0.0221954 0.027314 -0.00698492
-0.0221256 0.0272893 -0.00681035
-0.0220573 0.0272657 -0.00663482
-0.0219656 0.0272253 -0.00647329
-0.0218657 0.0271792 -0.00631659
-0.0217694 0.0271355 -0.00615776
-0.0216595 0.0270822 -0.00600689
-0.0215435 0.0270244 -0.00585969
-0.0214019 0.0269485 -0.00572752
-0.0212398 0.0268579 -0.00560736
-0.0210692 0.0267611 -0.00549213
-0.0209126 0.0266745 -0.00536849
-0.0207441 0.0265793 -0.00525178
-0.0204791 0.0264152 -0.00519165
-0.0202655 0.0262878 -0.00510116
-0.0200346 0.0261481 -0.00502055
-0.0198421 0.0260358 -0.00491727
-0.0195789 0.0258731 -0.00485518
-0.0193745 0.0257524 -0.00475847
-0.019184 0.0256416 -0.00465348
-0.0189284 0.0254844 -0.00458632
-0.018751 0.025383 -0.0044733
-0.0185472 0.0252627 -0.00437562
-0.0183457 0.0251443 -0.00427633
-0.0181735 0.0250466 -0.00415992
-0.0179919 0.0249422 -0.00404884
-0.0178235 0.0248474 -0.0039299
-0.0176758 0.0247673 -0.00379889
-0.0175181 0.02468 -0.00367361
-0.0173791 0.0246061 -0.00353742
-0.0172312 0.0245258 -0.00340623
-0.0170759 0.0244403 -0.00327928
-0.0169242 0.0243574 -0.00315013
-0.0167625 0.0242673 -0.00302662
-0.0166236 0.0241935 -0.00288988
-0.0164458 0.024092 -0.00277538
-0.0163116 0.0240215 -0.00263581
-0.0161017 0.0238972 -0.00253937
-0.0159196 0.0237927 -0.00242691
-0.0157423 0.0236915 -0.00231163
-0.0156055 0.0236193 -0.00217306
-0.0154127 0.0235072 -0.00206634
-0.0152099 0.0233879 -0.00196511
-0.0150565 0.0233039 -0.00183568
-0.0148835 0.0232059 -0.00171726
-0.0146969 0.0230983 -0.00160639
-0.0144261 0.0229307 -0.00154306
-0.0142422 0.022825 -0.00143032
-0.0140438 0.022709 -0.00132564
-0.0138152 0.0225715 -0.00123783
-0.013667 0.0224913 -0.00110451
-0.0133635 0.0223006 -0.00105846
-0.0131074 0.0221437 -0.000985439
-0.0129541 0.0220598 -0.000854587
-0.01277 0.0219541 -0.000740839
-0.0125178 0.0217999 -0.000665106
-0.0123088 0.0216766 -0.000564906
-0.0119732 0.0214632 -0.000535282
-0.0118985 0.0214353 -0.000359822
-0.0115221 0.021193 -0.000352352
-0.0203775 0.0233427 -0.0288376
-0.0206782 0.0235873 -0.0284103
-0.0210518 0.0238846 -0.0279353
-0.0212078 0.0240243 -0.0276048
-0.0215397 0.0242913 -0.0271585
-0.0217285 0.0244547 -0.0268071
-0.0219075 0.024611 -0.0264626
-0.0220623 0.0247497 -0.0261343
-0.0221548 0.0248434 -0.0258474
-0.0223681 0.0250242 -0.0254814
-0.0223804 0.0250598 -0.0252476
-0.0224964 0.0251703 -0.0249461
-0.0225516 0.0252368 -0.0246846
-0.0227262 0.0253896 -0.0243453
-0.0227843 0.0254582 -0.0240824
-0.0228196 0.0255102 -0.0238345
-0.0228559 0.025563 -0.0235862
-0.0229897 0.0256861 -0.0232747
-0.0230086 0.0257263 -0.023038
-0.0231288 0.0258395 -0.0227359
-0.0231222 0.0258612 -0.0225162
-0.0232553 0.0259838 -0.0222061
-0.0232312 0.0259927 -0.021998
-0.0233359 0.0260947 -0.0217068
-0.0233313 0.0261177 -0.0214864
