-0.00706358 0.0108935 -0.00201033
-0.00686632 0.0108213 -0.00205246
-0.00666686 0.0106959 -0.00217862
-0.0064708 0.0106569 -0.00216816
-0.00627308 0.0105786 -0.0022199
-0.00607689 0.0105377 -0.00221231
-0.00587775 0.0104298 -0.00231083
-0.00568017 0.0103597 -0.00234941
-0.00548341 0.0103087 -0.0023578
-0.00528387 0.0101982 -0.00246016
-0.00508486 0.0101019 -0.00253998
-0.00488777 0.0100479 -0.00255313
-0.00469068 0.0099946 -0.00256508
-0.00449114 0.00989246 -0.00265408
-0.00429042 0.00976857 -0.00277731
-0.00409139 0.00968101 -0.00284322
-0.00389228 0.00959385 -0.00290845
-0.00369507 0.00954429 -0.00291436
-0.00349594 0.00945944 -0.00297591
-0.00329436 0.00933069 -0.00310654
-0.00309391 0.00922531 -0.00320029
-0.00289688 0.00918367 -0.00319364
-0.00269401 0.00903884 -0.00334946
-0.00249349 0.00893827 -0.00343554
-0.00229508 0.00887588 -0.00346146
-0.00209505 0.00878663 -0.00352964
-0.00189363 0.00867586 -0.00363163
-0.0016893 0.00851882 -0.00380638
-0.00149021 0.00845072 -0.00384112
-0.00129191 0.00839641 -0.00385415
-0.00108999 0.00828482 -0.00395724
-0.000884732 0.00812292 -0.00413939
-0.000684265 0.00803861 -0.00419949
-0.000480149 0.00789963 -0.00434547
-0.000276913 0.00777653 -0.00446641
-7.16782e-05 0.00762579 -0.00463076
0.000133401 0.00748011 -0.00478705
0.000335638 0.00737864 -0.00487386
0.000543097 0.0072033 -0.00507655
0.000743921 0.00712604 -0.00512523
0.000950944 0.00696224 -0.00530971
0.00116129 0.006755 -0.00556225
0.00136076 0.00670185 -0.00557296
-0.0222962 0.00797874 -0.011901
-0.022088 0.00829622 -0.0113182
-0.0218797 0.00864568 -0.0106844
-0.0216725 0.008969 -0.0100926
-0.0214675 0.00921794 -0.0096203
-0.0212644 0.00939614 -0.00926141
-0.0210631 0.00949864 -0.00902381
-0.0208597 0.00972702 -0.00858479
-0.0206584 0.00985816 -0.00830159
-0.020457 0.0100157 -0.00797612
-0.0202571 0.010099 -0.00776976
-0.0200577 0.0101597 -0.00759945
-0.019858 0.0102496 -0.0073826
-0.0196577 0.0104012 -0.00706712
-0.0194596 0.0104029 -0.00699138
-0.019261 0.0104561 -0.00683338
-0.019063 0.0104569 -0.00675908
-0.0188637 0.0105992 -0.00645875
-0.0186641 0.0108075 -0.00605298
-0.0184666 0.0108069 -0.00598114
-0.0182688 0.0108606 -0.00582272
-0.0180708 0.0109626 -0.00558705
-0.0178734 0.0109957 -0.00546145
-0.0176759 0.0110621 -0.00528273
-0.0174788 0.0110981 -0.00515265
-0.0172818 0.011118 -0.00504829
-0.0170849 0.0111573 -0.00491294
-0.0168882 0.0111594 -0.00483708
-0.0166913 0.0112374 -0.00464
-0.0164948 0.0112517 -0.00454472
-0.0162983 0.0112788 -0.00442888
-0.0161019 0.0113278 -0.00427835
-0.0159056 0.0113388 -0.00418836
-0.0157095 0.0113745 -0.00405903
-0.0155132 0.0113707 -0.00399269
-0.0153171 0.0113628 -0.0039328
-0.0151216 0.0114719 -0.00368669
-0.0149253 0.011423 -0.0036922
-0.0147297 0.0114652 -0.00355266
-0.0145344 0.0115478 -0.00334904
-0.0143387 0.0115439 -0.00328283
-0.0141428 0.0115174 -0.00325274
-0.0139474 0.0115462 -0.00313466
-0.0137518 0.011539 -0.0030739
-0.0135563 0.0115464 -0.00298998
-0.0133601 0.011486 -0.00301377
-0.0131652 0.0115277 -0.00287517
-0.0129701 0.0115453 -0.00277508
-0.012775 0.0115598 -0.0026799
-0.01258 0.0115757 -0.00258245
-0.0123844 0.0115484 -0.00255365
-0.0121877 0.011465 -0.00261398
-0.011994 0.0115441 -0.00241631
-0.0117981 0.0115 -0.00241421
-0.0116037 0.0115303 -0.00229396
-0.0114062 0.0114068 -0.00241782
-0.0112115 0.0114191 -0.00232632
-0.0110167 0.0114275 -0.00224079
-0.0108204 0.0113632 -0.00227073
-0.0106254 0.0113611 -0.00220207
-0.0104304 0.011351 -0.0021459
-0.0102343 0.0113007 -0.00215357
-0.0100386 0.0112646 -0.0021387
-0.00984413 0.0112754 -0.00204958
-0.00964871 0.0112493 -0.00201885
-0.0094519 0.0111741 -0.00206594
-0.0092563 0.0111429 -0.00204333
-0.00906027 0.0110971 -0.00204384
-0.00886526 0.0110845 -0.00199169
-0.00866868 0.011022 -0.00201859
-0.00847254 0.0109749 -0.00202116
-0.00827578 0.0109097 -0.00205219
-0.00808007 0.0108762 -0.00203321
-0.00788344 0.0108169 -0.00205496
-0.00768774 0.0107845 -0.00203412
-0.00748974 0.01069 -0.00211152
-0.00729442 0.010669 -0.00207261
-0.00709752 0.0106066 -0.00209921
-0.00689995 0.0105287 -0.00215031
-0.00670294 0.0104663 -0.00217672
-0.00650745 0.0104425 -0.00214232
-0.00630918 0.0103514 -0.00221406
-0.00611195 0.0102871 -0.00224354
-0.0059138 0.010203 -0.00230417
-0.00571471 0.0100993 -0.00239579
-0.00551696 0.010028 -0.0024361
-0.00531941 0.00996249 -0.0024674
-0.00512169 0.00989443 -0.00250263
-0.00492332 0.00981381 -0.00255765
-0.00472507 0.00973754 -0.00260574
-0.0045274 0.0096744 -0.00263315
-0.00432686 0.00955468 -0.00274967
-0.00412824 0.00947554 -0.00280222
-0.0039276 0.00935875 -0.00291405
-0.00373029 0.00930837 -0.00292118
-0.00353018 0.00920548 -0.00301102
-0.00332941 0.00909269 -0.0031164
-0.00312983 0.00900402 -0.00318371
-0.00293043 0.0089202 -0.00324341
-0.00273194 0.00885405 -0.00327526
-0.0025307 0.00874069 -0.00338135
-0.00233053 0.00864807 -0.00345477
-0.00212964 0.00854475 -0.00354497
-0.00192935 0.00845351 -0.00361611
-0.00172669 0.0083245 -0.0037466
-0.00152727 0.00825108 -0.00378963
-0.00132604 0.00814941 -0.00387703
-0.00112373 0.00803247 -0.00398842
-0.000920268 0.00789938 -0.00412511
-0.000719488 0.0078106 -0.00419212
-0.000518316 0.00771716 -0.00426641
-0.000316976 0.00762271 -0.00434226
-0.000105463 0.00737703 -0.00465538
9.61631e-05 0.00728309 -0.00473032
0.000300019 0.00715789 -0.00485422
0.00050576 0.00700754 -0.00501754
0.000714268 0.00682034 -0.00523857
0.000913436 0.00676882 -0.00524672
0.00111977 0.00661746 -0.0054114
-0.0221309 0.00795338 -0.0114915
-0.0219253 0.0081729 -0.0110662
-0.0217169 0.00854228 -0.0104013
-0.0215101 0.00886542 -0.00981054
-0.0213038 0.00919055 -0.00921683
-0.0211038 0.00922421 -0.00908961
-0.0209008 0.00942177 -0.00870023
-0.0206991 0.00957057 -0.008389
-0.0204983 0.00968427 -0.00813396
-0.020298 0.00978395 -0.00790144
-0.0200984 0.00984477 -0.00773113
-0.0198984 0.00995456 -0.00748259
-0.0196982 0.0100883 -0.00719588
-0.0194988 0.0101782 -0.00697919
-0.0193004 0.0102104 -0.00685485
-0.0191027 0.0101849 -0.00682259
-0.0189052 0.0101423 -0.00681766
-0.0187046 0.0104242 -0.00629481
-0.0185055 0.010588 -0.00596065
-0.0183078 0.0106157 -0.00584363
-0.0181104 0.0106278 -0.00575157
-0.0179124 0.0107321 -0.00551261
-0.0177154 0.0107062 -0.00548114
-0.0175179 0.0107771 -0.00529544
-0.0173207 0.0108278 -0.0051421
-0.0171236 0.0108969 -0.00495932
-0.0169267 0.0109133 -0.00486068
-0.01673 0.0109029 -0.00480464
-0.0165332 0.0109427 -0.00466871
-0.0163366 0.0109426 -0.00459634
-0.0161402 0.0110685 -0.00432343
-0.0159438 0.0110688 -0.00425044
-0.0157476 0.0111114 -0.0041103
-0.0155513 0.0111125 -0.00403597
-0.0153551 0.0111244 -0.00394473
-0.015159 0.0111159 -0.00388595
-0.0149631 0.0111628 -0.00373897
-0.0147676 0.011227 -0.00356454
-0.0145716 0.0112246 -0.00349608
-0.0143754 0.0111845 -0.00348756
-0.0141804 0.0112671 -0.00328396
-0.0139845 0.0112568 -0.00322808
-0.0137892 0.0112833 -0.00311374
-0.0135934 0.0112671 -0.00306739
-0.0133974 0.0112326 -0.0030499
-0.0132019 0.0112368 -0.00297101
-0.0130072 0.0112881 -0.00281743
-0.0128114 0.0112596 -0.00279058
-0.012617 0.0113225 -0.00261851
-0.0124212 0.0112857 -0.00260491
-0.0122256 0.0112645 -0.00256634
-0.0120305 0.0112712 -0.00248361
-0.0118348 0.011243 -0.00245632
-0.0116388 0.0111941 -0.00246169
-0.0114437 0.0111957 -0.00238715
-0.0112478 0.0111523 -0.0023838
-0.0110534 0.0111831 -0.00226299
-0.0108576 0.0111464 -0.00224908
-0.0106619 0.0111122 -0.00223115
-0.0104664 0.0110859 -0.00220085
-0.0102713 0.0110772 -0.00214251
-0.0100755 0.0110385 -0.0021319
-0.00987916 0.0109819 -0.00214938
-0.00968329 0.0109434 -0.00213828
-0.0094881 0.0109286 -0.00208966
-0.00929152 0.0108657 -0.00211726
-0.00909676 0.0108646 -0.00204698
-0.00890051 0.0108139 -0.00205518
-0.00870611 0.0108219 -0.0019705
-0.00850778 0.0107079 -0.00207878
-0.00831248 0.0106881 -0.00203798
-0.00811566 0.0106238 -0.00206767
-0.00791867 0.0105557 -0.00210318
-0.0077227 0.0105178 -0.00209099
-0.00752618 0.0104653 -0.00210202
-0.00732907 0.0103978 -0.0021365
-0.00713252 0.0103464 -0.00214564
-0.00693544 0.0102824 -0.00217457
-0.00674031 0.0102684 -0.00212478
-0.00654219 0.0101804 -0.0021915
-0.00634354 0.010082 -0.00227467
-0.0061479 0.0100567 -0.00224249
-0.00594873 0.00994962 -0.00233938
-0.00575013 0.00985803 -0.0024117
-0.00555438 0.00983255 -0.00237985
-0.0053555 0.00973811 -0.00245658
-0.00515713 0.00965687 -0.00251254
-0.00495738 0.00954789 -0.00261214
-0.00476024 0.00949603 -0.0026217
-0.0045644 0.00947135 -0.00258848
-0.00436269 0.00932825 -0.00274169
-0.00416502 0.00926855 -0.00276354
-0.00396462 0.00915647 -0.00286779
-0.00376582 0.00907771 -0.00291956
-0.00356485 0.00895927 -0.00303373
-0.00336652 0.00889266 -0.00306636
-0.00316553 0.00877821 -0.00317412
-0.00296599 0.00869239 -0.00323685
-0.00276711 0.00861995 -0.00327852
-0.00256732 0.00853257 -0.00334363
-0.00236626 0.00842487 -0.00344066
-0.00216575 0.0083283 -0.0035201
-0.00196579 0.00824309 -0.00358171
-0.00176393 0.00812739 -0.00369111
-0.00156346 0.00803696 -0.0037608
-0.00136255 0.00794084 -0.00383936
-0.00115963 0.00781403 -0.00396609
-0.000957097 0.00769597 -0.00407904
-0.000757079 0.00761924 -0.00412705
-0.000554792 0.00750858 -0.00422826
-0.000347657 0.00732603 -0.00444218
-0.00014068 0.00714943 -0.00464665
6.42815e-05 0.00700628 -0.00479861
0.000267858 0.00688611 -0.00491448
0.0004661 0.00684546 -0.00490564
0.000672346 0.00669006 -0.00507661
0.000881638 0.00649419 -0.0053109
0.00108542 0.0063794 -0.00541809
0.00129555 0.00617822 -0.00566051
0.0015006 0.00605058 -0.00578769
0.00169769 0.00603305 -0.00574245
-0.0221745 0.00758322 -0.0117081
-0.0219677 0.00784539 -0.0112149
-0.0217659 0.00790301 -0.0110491
-0.021552 0.0085426 -0.00995276
-0.0213467 0.00881445 -0.00944468
-0.021144 0.00897612 -0.00911295
-0.0209414 0.00914673 -0.00876698
-0.0207415 0.00918959 -0.00862522
-0.0205393 0.00937675 -0.00825303
-0.0203386 0.00949256 -0.00799493
-0.0201375 0.00964593 -0.00767692
-0.0199385 0.00967809 -0.00755252
-0.0197389 0.00976167 -0.00734607
-0.0195394 0.00985165 -0.0071295
-0.0193404 0.00992111 -0.0069457
-0.0191423 0.00991817 -0.0068775
-0.0189434 0.0100077 -0.00666174
-0.0187454 0.0100122 -0.00658176
-0.0185454 0.010252 -0.00612653
-0.0183476 0.0102922 -0.0059898
-0.0181491 0.0104272 -0.00570184
-0.0179519 0.0103979 -0.00567595
-0.0177542 0.0104708 -0.00548706
-0.0175568 0.0105274 -0.0053243
-0.0173594 0.0105915 -0.00514956
-0.0171626 0.0105528 -0.00513871
-0.0169653 0.0106702 -0.00487914
-0.0167685 0.0106549 -0.00483098
-0.0165717 0.010689 -0.00470433
-0.016375 0.0106766 -0.00465153
-0.0161785 0.0107622 -0.00444291
-0.0159819 0.0107673 -0.00436236
-0.0157857 0.0108489 -0.0041602
-0.0155893 0.0108387 -0.004104
-0.0153931 0.0108536 -0.00400802
-0.0151969 0.0108642 -0.00391869
-0.015001 0.0109126 -0.00376951
-0.0148049 0.010896 -0.00372354
-0.0146093 0.0109561 -0.00355585
-0.0144137 0.0110018 -0.00341102
-0.0142179 0.0110116 -0.00332327
-0.0140224 0.0110366 -0.00321136
-0.0138269 0.0110561 -0.00310826
-0.01363 0.0109442 -0.00321355
-0.0134339 0.0109119 -0.00319265
-0.0132392 0.0109842 -0.00300571
-0.0130437 0.0109893 -0.00292549
-0.0128478 0.010961 -0.00289834
-0.0126525 0.0109724 -0.00280803
-0.0124574 0.0109845 -0.00271674
-0.0122612 0.010938 -0.00271837
-0.0120663 0.0109579 -0.00261482
-0.011871 0.0109549 -0.00254737
-0.0116749 0.0109109 -0.00254513
-0.0114784 0.0108447 -0.00257792
-0.0112826 0.0108142 -0.00255406
-0.0110876 0.0108247 -0.00246532
-0.0108929 0.0108408 -0.00236784
-0.0106987 0.0108772 -0.00223826
-0.0105036 0.0108671 -0.00218224
-0.0103067 0.0107902 -0.00223192
-0.0101123 0.0108084 -0.00213115
-0.00991532 0.0107294 -0.0021841
-0.00971955 0.0106962 -0.00216456
-0.00952368 0.0106598 -0.00215015
-0.00932761 0.0106166 -0.00214631
-0.00913077 0.0105487 -0.00218164
-0.00893627 0.0105584 -0.0020944
-0.00874127 0.0105497 -0.00203617
-0.00854207 0.0104109 -0.00218337
-0.00834729 0.0104102 -0.00211248
-0.0081512 0.0103693 -0.00210505
-0.00795364 0.0102861 -0.00216443
-0.00775801 0.0102602 -0.00213327
-0.00756096 0.0101948 -0.0021645
-0.00736496 0.0101589 -0.00214907
-0.00716872 0.0101172 -0.002143
-0.00697119 0.0100423 -0.00218896
-0.0067749 0.0100005 -0.00218298
-0.00657708 0.00992136 -0.00223568
-0.00638078 0.00988082 -0.00222757
-0.00618214 0.00978534 -0.00230602
-0.00598342 0.00969008 -0.00238407
-0.00578677 0.00964452 -0.00238378
-0.00558656 0.00951962 -0.00250843
-0.00539031 0.0094851 -0.00249072
-0.00519296 0.00942706 -0.00251003
-0.00499405 0.0093366 -0.00258036
-0.00479633 0.00927329 -0.00260791
-0.00459838 0.00920592 -0.00264182
-0.00439715 0.00907334 -0.00277828
-0.00419903 0.00900601 -0.00281207
-0.00400088 0.00893917 -0.00284509
-0.0038024 0.00886699 -0.00288644
-0.00360043 0.0087297 -0.00303009
-0.00340146 0.00865174 -0.00308044
-0.00320186 0.00856368 -0.00314665
-0.00300317 0.00849374 -0.00318438
-0.00280409 0.00841786 -0.00323136
-0.00260417 0.00832845 -0.00329955
-0.00240337 0.00822527 -0.00338934
-0.0022012 0.00810031 -0.00351325
-0.00200068 0.00800599 -0.00358902
-0.00180063 0.00792134 -0.00364964
-0.00159814 0.00779769 -0.00377129
-0.00139813 0.00771673 -0.00382599
-0.00119746 0.0076266 -0.00389508
-0.000992827 0.00747492 -0.00406054
-0.000791726 0.00738165 -0.0041344
-0.000587235 0.00723742 -0.00428809
-0.000382711 0.00709545 -0.00443818
-0.000175299 0.00691254 -0.00465233
2.98276e-05 0.00676724 -0.00480746
0.00022698 0.00674222 -0.00477412
0.000432023 0.00660205 -0.00492115
0.000643346 0.00637391 -0.00520577
0.000846897 0.0062609 -0.0053101
0.00105411 0.00609813 -0.00549222
0.0012588 0.00597342 -0.00561473
0.00144481 0.00610803 -0.00533157
-0.0220044 0.00776944 -0.0109611
-0.0218061 0.00767173 -0.0110436
-0.0216001 0.00793354 -0.0105517
-0.0213889 0.00847095 -0.00961993
-0.0211864 0.00861642 -0.00931428
-0.0209848 0.00872472 -0.00906802
-0.0207806 0.00899291 -0.00856671
-0.02058 0.00908243 -0.00835066
-0.0203795 0.00917924 -0.00812302
-0.0201785 0.00931942 -0.00782634
-0.0199789 0.00938637 -0.00764648
-0.0197788 0.00949714 -0.00739683
-0.0195792 0.00958839 -0.00717836
-0.01938 0.00966591 -0.00698189
-0.0191815 0.00969569 -0.00686152
-0.0189826 0.00977853 -0.00665666
-0.0187843 0.00980578 -0.00654045
-0.0185853 0.00993608 -0.00626009
-0.0183874 0.00995832 -0.00615191
-0.0181888 0.0100871 -0.0058741
-0.017991 0.0101456 -0.00570829
-0.0177937 0.0101245 -0.00566937
-0.017596 0.0102083 -0.00546337
-0.0173983 0.0103017 -0.00524211
-0.0172013 0.010295 -0.00518023
-0.0170042 0.0103381 -0.00503919
-0.0168071 0.0104306 -0.00481959
-0.0166102 0.0104652 -0.00469205
-0.0164135 0.0104429 -0.0046551
-0.0162168 0.010485 -0.00451566
-0.0160202 0.0104956 -0.00442648
-0.0158238 0.0105497 -0.00426811
-0.0156274 0.0105635 -0.00417382
-0.015431 0.0105678 -0.00409465
-0.0152349 0.0106058 -0.00396204
-0.0150386 0.0106007 -0.00389788
-0.0148427 0.0106324 -0.00377515
-0.0146464 0.0106162 -0.0037286
-0.0144505 0.0106359 -0.00362511
-0.0142552 0.0107172 -0.0034239
-0.0140592 0.010706 -0.00336948
-0.013864 0.010762 -0.00320854
-0.0136677 0.010714 -0.0032124
-0.0134722 0.0107338 -0.00310898
-0.0132766 0.0107366 -0.00303237
-0.013081 0.0107401 -0.00295476
-0.0128852 0.0107226 -0.00291031
-0.0126898 0.0107321 -0.0028231
-0.0124944 0.0107324 -0.00275054
-0.0122991 0.0107411 -0.00266474
-0.0121031 0.0107033 -0.00265253
-0.0119072 0.0106707 -0.00263204
-0.0117118 0.0106635 -0.00257144
-0.0115161 0.0106412 -0.00253477
-0.0113204 0.0106161 -0.00250231
-0.0111254 0.0106252 -0.00241602
-0.0109297 0.0105999 -0.00238389
-0.0107335 0.0105515 -0.00238844
-0.0105395 0.0105962 -0.00224588
-0.0103437 0.0105639 -0.00222488
-0.0101482 0.0105447 -0.00218327
-0.00995155 0.0104783 -0.00221619
-0.00975587 0.0104509 -0.00218754
-0.00955915 0.0103857 -0.00221857
-0.00936343 0.010358 -0.0021902
-0.00916719 0.010312 -0.00219089
-0.00897144 0.0102824 -0.00216576
-0.00877518 0.0102366 -0.00216597
-0.00857994 0.0102233 -0.00211506
-0.00838355 0.0101744 -0.00212022
-0.00818636 0.0101021 -0.00216228
-0.00798878 0.0100207 -0.00221871
-0.00779258 0.00998039 -0.00221026
-0.00759657 0.00994603 -0.00219245
-0.00740102 0.00992365 -0.0021558
-0.00720444 0.00987396 -0.00216211
-0.00700711 0.00980577 -0.00219759
-0.00681163 0.00978588 -0.00215696
-0.00661518 0.0097412 -0.00215537
-0.00641587 0.00962762 -0.00226224
-0.00621732 0.00953525 -0.00233566
-0.00601918 0.00945474 -0.00239037
-0.00582302 0.00942162 -0.00237052
-0.00562519 0.0093505 -0.00241038
-0.0054252 0.00923336 -0.00252265
-0.00522726 0.00916376 -0.00256004
-0.00502999 0.00910956 -0.00257326
-0.00483166 0.00903398 -0.00262006
-0.00463505 0.00899529 -0.00260881
-0.00443334 0.00885314 -0.00276014
-0.00423483 0.00877867 -0.0028051
-0.00403611 0.00870135 -0.00285446
-0.00383652 0.0086084 -0.00292834
-0.00363783 0.00853454 -0.00297224
-0.00343914 0.00846196 -0.00301408
-0.003239 0.00836387 -0.00309595
-0.00303931 0.0082759 -0.00316188
-0.00283909 0.00817987 -0.0032404
-0.00264009 0.00810737 -0.00328198
-0.00243734 0.00797055 -0.0034244
-0.00223571 0.00785586 -0.00353207
-0.00203635 0.00778205 -0.00357554
-0.00183374 0.00765476 -0.00370289
-0.00163182 0.00754148 -0.00380817
-0.00143329 0.00748554 -0.00382356
-0.00123266 0.00739646 -0.00389087
-0.00103018 0.00727947 -0.00400183
-0.000824574 0.00711543 -0.00418642
-0.000619991 0.00697052 -0.00434099
-0.000416655 0.0068475 -0.0044612
-0.000216463 0.0067743 -0.00450339
-1.11477e-05 0.00662542 -0.00466397
0.000190227 0.00653757 -0.00472899
0.000396006 0.00638664 -0.00489265
0.000607708 0.0061529 -0.00518574
0.000809554 0.00606448 -0.00525147
0.00101175 0.00597245 -0.00532283
0.00121238 0.00590355 -0.00535795
0.00142093 0.00572606 -0.00556276
-0.0218437 0.00755625 -0.0108531
-0.021643 0.00757498 -0.0107497
-0.0214366 0.00786621 -0.0102114
-0.0212277 0.008313 -0.00942528
-0.021027 0.0083748 -0.00925335
-0.0208223 0.00865519 -0.00873298
-0.0206214 0.00875447 -0.0085015
-0.0204195 0.00892531 -0.00815608
-0.0202194 0.0090013 -0.00796189
-0.0200186 0.00914154 -0.00766541
-0.0198191 0.009201 -0.00749769
-0.0196197 0.00927364 -0.00730904
-0.0194204 0.0093427 -0.00712613
-0.019222 0.00935477 -0.00703402
-0.019022 0.00952341 -0.00669271
-0.0188239 0.00953795 -0.00659677
-0.018626 0.00952551 -0.00654377
-0.0184268 0.00968522 -0.00621691
-0.018228 0.0098324 -0.00591009
-0.0180302 0.00985778 -0.00579709
-0.0178327 0.00986633 -0.00571087
-0.0176347 0.0099801 -0.00545736
-0.0174373 0.0100173 -0.00532581
-0.0172401 0.0100254 -0.00524031
-0.0170429 0.0100768 -0.00508608
-0.0168458 0.0100795 -0.00500933
-0.0166488 0.0101191 -0.00487403
-0.0164519 0.0101902 -0.00468869
-0.0162552 0.0101976 -0.00460439
-0.0160585 0.0102354 -0.00447212
-0.0158621 0.0103084 -0.00428377
-0.0156655 0.0102854 -0.00424793
-0.0154691 0.0102989 -0.00415418
-0.0152729 0.0103372 -0.00402112
-0.0150768 0.0103897 -0.00386569
-0.0148804 0.0103506 -0.00385536
-0.0146846 0.0104117 -0.00368627
-0.0144885 0.0104109 -0.00361526
-0.0142925 0.0104177 -0.00353226
-0.0140973 0.0104992 -0.00333107
-0.0139012 0.0104812 -0.00328734
-0.0137047 0.0104176 -0.003316
-0.0135091 0.010444 -0.00320202
-0.013313 0.0104139 -0.00317763
-0.0131181 0.0104771 -0.00300539
-0.012922 0.0104449 -0.00298421
-0.0127274 0.0105055 -0.00281634
-0.0125316 0.0104888 -0.00277064
-0.0123358 0.0104677 -0.00273206
-0.0121402 0.0104596 -0.00267283
-0.0119441 0.0104165 -0.00266894
-0.011749 0.0104346 -0.00256825
-0.0115528 0.0103885 -0.00256921
-0.0113575 0.0103876 -0.00249867
-0.0111618 0.0103622 -0.0024667
-0.0109661 0.0103406 -0.00242883
-0.0107703 0.0103135 -0.00239964
-0.0105756 0.0103298 -0.00230195
-0.0103788 0.0102643 -0.00233351
-0.0101844 0.0102881 -0.00222403
-0.00998769 0.0102227 -0.00225525
-0.00979206 0.0101997 -0.00221965
-0.00959453 0.0101084 -0.0022916
-0.00939937 0.010102 -0.00222977
-0.0092037 0.0100774 -0.00219665
-0.00900714 0.0100227 -0.00221097
-0.00881148 0.00999848 -0.00217729
-0.00861516 0.00995288 -0.00217724
-0.00841982 0.00993838 -0.00212814
-0.00822328 0.00988689 -0.00213735
-0.00802785 0.00986821 -0.00209485
-0.00782989 0.00977758 -0.00216569
-0.00763323 0.00972552 -0.00217572
-0.00743688 0.00968266 -0.00217134
-0.00724028 0.0096338 -0.00217632
-0.00704324 0.00957436 -0.0021979
-0.00684653 0.00952401 -0.0022052
-0.00664857 0.00944368 -0.00225967
-0.00645045 0.00936127 -0.00231731
-0.00625207 0.00927449 -0.00238183
-0.00605589 0.00924132 -0.00236203
-0.00585654 0.0091351 -0.00245705
-0.00566011 0.00909779 -0.0024437
-0.00546164 0.00901552 -0.00250099
-0.00526212 0.00891172 -0.00259212
-0.00506517 0.00886562 -0.00259248
-0.00486738 0.00880241 -0.0026198
-0.00466785 0.00870419 -0.00270203
-0.00447052 0.00865294 -0.00271046
-0.00427012 0.00854063 -0.00281473
-0.00407231 0.00848183 -0.00283495
-0.00387263 0.00838787 -0.00291034
-0.00367298 0.00829626 -0.00298197
-0.00347554 0.00824809 -0.0029855
-0.00327476 0.00813839 -0.00308537
-0.00307558 0.00806022 -0.00313587
-0.00287457 0.0079503 -0.00323606
-0.00267476 0.00786397 -0.00329922
-0.00247446 0.00777068 -0.00337325
-0.00227242 0.0076489 -0.00349195
-0.00207542 0.00761546 -0.00347212
-0.00187037 0.00744665 -0.00366431
-0.00166826 0.00733047 -0.00377401
-0.00146749 0.00723838 -0.00384597
-0.00126782 0.00716545 -0.00388787
-0.001063 0.0070115 -0.00405652
-0.000857443 0.00684893 -0.00423857
-0.000656711 0.00676472 -0.00429801
-0.000453127 0.006638 -0.00442386
-0.000251228 0.00653911 -0.00450617
-4.87168e-05 0.00643267 -0.00460021
0.000156515 0.00628761 -0.00475454
0.000366541 0.00607491 -0.00501455
0.000572808 0.00592086 -0.00518278
0.000773055 0.00585579 -0.00521193
-0.0216807 0.00745462 -0.0105673
-0.0214788 0.00753508 -0.0103655
-0.0212722 0.00785644 -0.00977993
-0.0210663 0.00817048 -0.0092062
-0.0208663 0.00819509 -0.00909374
-0.0206644 0.00833752 -0.00879365
-0.0204614 0.00856176 -0.00836343
-0.0202607 0.00866273 -0.00812953
-0.0200595 0.00881529 -0.00781369
-0.0198601 0.00886657 -0.00765911
-0.0196603 0.00895236 -0.00744962
-0.0194598 0.00910816 -0.00712888
-0.0192612 0.00913222 -0.00701774
-0.0190632 0.00911565 -0.00697125
-0.0188632 0.00929145 -0.00661888
-0.0186649 0.00931648 -0.00650638
-0.0184664 0.00939156 -0.00631429
-0.0182677 0.00949952 -0.00607002
-0.0180695 0.00958403 -0.00586313
-0.0178718 0.00959677 -0.00577026
-0.017674 0.00965563 -0.00560422
-0.0174765 0.00969747 -0.00546522
-0.017279 0.0097396 -0.00532581
-0.0170815 0.00984785 -0.00508146
-0.0168845 0.00981959 -0.00505387
-0.0166874 0.00984967 -0.00493368
-0.0164904 0.00988958 -0.00479792
-0.0162936 0.0099632 -0.00460876
-0.0160968 0.00996361 -0.00453574
-0.0159002 0.00998561 -0.00442852
-0.0157036 0.0100022 -0.00432983
-0.0155073 0.0100738 -0.00414403
-0.0153108 0.0100559 -0.0041001
-0.0151145 0.0100859 -0.00398037
-0.0149186 0.010143 -0.00381777
-0.0147222 0.0101242 -0.00377533
-0.0145263 0.0101674 -0.00363467
-0.0143305 0.0101969 -0.00351583
-0.0141342 0.0101675 -0.00349023
-0.0139386 0.0102105 -0.00335004
-0.0137425 0.0101923 -0.00330664
-0.0135459 0.0101382 -0.00332011
-0.0133509 0.0102016 -0.00314767
-0.0131554 0.0102216 -0.00304406
-0.0129595 0.0102116 -0.00298787
-0.0127645 0.0102496 -0.00285575
-0.0125695 0.0102902 -0.00271941
-0.0123745 0.0103187 -0.00260247
-0.0121776 0.0102336 -0.00266498
-0.0119813 0.0101857 -0.00266859
-0.0117863 0.0102063 -0.00256407
-0.0115901 0.0101626 -0.00256115
-0.0113939 0.010121 -0.00255487
-0.0111987 0.0101247 -0.002477
-0.011003 0.0101016 -0.00244153
-0.010808 0.0101141 -0.00234984
-0.0106117 0.0100663 -0.00235336
-0.0104159 0.0100386 -0.00232518
-0.0102215 0.010068 -0.0022068
-0.0100248 0.0100036 -0.00223641
-0.00982819 0.00994545 -0.00225622
-0.00963201 0.00990363 -0.00225024
-0.00943578 0.00986148 -0.00224472
-0.00923967 0.0098238 -0.00223218
-0.00904372 0.00979141 -0.00221135
-0.00884799 0.00976604 -0.00217938
-0.00865188 0.00972861 -0.00216642
-0.00845617 0.00970371 -0.00213375
-0.00825913 0.00963908 -0.0021636
-0.00806245 0.00958579 -0.00217559
-0.00786644 0.00955265 -0.00215581
-0.00767009 0.00951008 -0.00215092
-0.00747053 0.00938084 -0.00228225
-0.00727451 0.00934998 -0.00225891
-0.00707784 0.00930224 -0.00226209
-0.00687948 0.00921204 -0.00233195
-0.00668318 0.00917555 -0.00231738
-0.0064878 0.0091615 -0.00226754
-0.00628837 0.00905 -0.00237081
-0.00609076 0.00898374 -0.00240296
-0.00589286 0.00891278 -0.00244247
-0.00569652 0.0088781 -0.002425
-0.00549827 0.00880132 -0.00247358
-0.00530054 0.00873719 -0.00250229
-0.00510301 0.00867865 -0.00252223
-0.00490375 0.00858428 -0.00259832
-0.00470473 0.00849707 -0.00266313
-0.00450587 0.00841486 -0.00272011
-0.00430707 0.00833556 -0.00277244
-0.00410652 0.00822293 -0.00287705
-0.00390811 0.00815454 -0.00291223
-0.00370793 0.00805349 -0.00299853
-0.00350933 0.00798432 -0.00303489
-0.00331187 0.00793738 -0.00303636
-0.00311118 0.00783173 -0.0031298
-0.00290891 0.00769955 -0.00326474
-0.00270896 0.0076118 -0.00333003
-0.00250708 0.00749129 -0.00344658
-0.00230778 0.00741829 -0.00348872
-0.00210884 0.00735254 -0.00351948
-0.00190621 0.00722517 -0.00364655
-0.00170653 0.00714973 -0.0036924
-0.00150437 0.00703451 -0.00380041
-0.00130133 0.00690732 -0.0039271
-0.0010959 0.00674413 -0.00411
-0.000896007 0.00667196 -0.00415057
-0.000692407 0.00654284 -0.00428012
-0.000493434 0.00648745 -0.00429434
-0.000289869 0.00636268 -0.00441698
-8.66e-05 0.00624458 -0.00452912
0.000120596 0.00607006 -0.00472928
0.000329167 0.00587869 -0.0049557
0.000536051 0.00571549 -0.00513804
0.00073547 0.00566261 -0.00514814
0.000939679 0.00554213 -0.00526367
0.00113766 0.00551121 -0.00523945
-0.021518 0.00734363 -0.0102967
-0.0213147 0.00749804 -0.00997744
-0.0211103 0.00772796 -0.00953811
-0.0209067 0.00793859 -0.0091296
-0.0207055 0.00803089 -0.00890954
-0.0205026 0.00823993 -0.00850381
-0.0203031 0.00826166 -0.00839616
-0.0200998 0.00853447 -0.00788931
-0.0198998 0.00862078 -0.00767908
-0.0197 0.00870505 -0.00747218
-0.0195003 0.00879334 -0.00725899
-0.0193013 0.00883984 -0.00711222
-0.0191026 0.00887054 -0.00699069
-0.0189029 0.00901049 -0.00669558
-0.018704 0.00909452 -0.0064894
-0.0185057 0.00913345 -0.00635486
-0.0183074 0.00918281 -0.00620381
-0.0181085 0.00933807 -0.00588475
-0.0179107 0.0093805 -0.00574482
-0.017713 0.00940361 -0.00563562
-0.0175154 0.00943133 -0.0055191
-0.0173177 0.00950911 -0.00532325
-0.0171201 0.0096322 -0.00505557
-0.0169231 0.00958744 -0.00505414
-0.016726 0.00961722 -0.00493447
-0.0165289 0.00967699 -0.00476739
-0.0163321 0.00966542 -0.00471336
-0.0161352 0.00968797 -0.00460524
-0.0159385 0.00973306 -0.0044615
-0.0157419 0.00975676 -0.00435169
-0.0155452 0.00975469 -0.00428265
-0.0153488 0.00978286 -0.00416582
-0.0151525 0.00981614 -0.00404087
-0.0149564 0.00988257 -0.00386351
-0.01476 0.0098625 -0.0038231
-0.0145636 0.00985106 -0.003769
-0.0143679 0.00990562 -0.00361057
-0.014172 0.00993159 -0.00349735
-0.013976 0.00993969 -0.00341245
-0.0137799 0.00992715 -0.00336017
-0.0135843 0.0099633 -0.00323094
-0.0133882 0.00994111 -0.00319394
-0.0131921 0.00992731 -0.00314369
-0.0129969 0.00996398 -0.0030137
-0.0128016 0.00999712 -0.00288937
-0.0126058 0.00998692 -0.00283347
-0.0124114 0.0100591 -0.00264749
-0.0122144 0.00997068 -0.00271515
-0.0120175 0.00989321 -0.00276541
-0.0118214 0.00986122 -0.00274394
-0.0116264 0.00988456 -0.00263514
-0.0114316 0.00991337 -0.00251773
-0.0112354 0.00987475 -0.00250677
-0.0110391 0.00983043 -0.0025047
-0.0108448 0.0098711 -0.00236867
-0.010648 0.00980464 -0.00240151
-0.010452 0.00977439 -0.00237727
-0.0102576 0.00980335 -0.00225975
-0.0100599 0.0097061 -0.00234108
-0.00986425 0.00968705 -0.0022992
-0.00966726 0.00961884 -0.00233468
-0.00947278 0.0096406 -0.00222857
-0.00927578 0.00957392 -0.00226164
-0.00907922 0.00952353 -0.00226904
-0.00888421 0.00952388 -0.00219663
-0.00868728 0.00946208 -0.002222
-0.00849228 0.00946123 -0.00215146
-0.00829467 0.00938098 -0.00220578
-0.00809863 0.00934798 -0.00218583
-0.00790157 0.00928625 -0.002211
-0.00770453 0.00922679 -0.0022326
-0.00750811 0.00918523 -0.00222601
-0.00731134 0.0091349 -0.00223324
-0.00711325 0.00905065 -0.00229368
-0.00691713 0.0090189 -0.00227165
-0.00672045 0.00897326 -0.00227145
-0.00652216 0.00888842 -0.00233278
-0.00632359 0.00879896 -0.0024013
-0.00612659 0.00874888 -0.00240799
-0.00593064 0.00872377 -0.00237548
-0.00573126 0.0086202 -0.00246604
-0.00553396 0.00856572 -0.0024796
-0.00533435 0.00846123 -0.00257148
-0.00513704 0.00840897 -0.0025815
-0.00493855 0.00833227 -0.00262978
-0.00473925 0.00824022 -0.00270211
-0.00453979 0.00814692 -0.00277631
-0.00434102 0.00806959 -0.00282551
-0.00414152 0.00797878 -0.00289574
-0.00394436 0.0079359 -0.00289088
-0.00374528 0.00785645 -0.00294333
-0.00354445 0.00774526 -0.00304539
-0.00334402 0.00764355 -0.00313253
-0.00314483 0.00756711 -0.00318012
-0.00294545 0.00748837 -0.00323126
-0.00274507 0.00739295 -0.00330846
-0.00254461 0.00729808 -0.00338473
-0.0023442 0.00720576 -0.00345704
-0.00214332 0.00710701 -0.00353932
-0.00194295 0.00701864 -0.00360533
-0.0017401 0.00689044 -0.00373355
-0.00153687 0.00675837 -0.00386772
-0.00133556 0.00666041 -0.0039486
-0.00113441 0.00656639 -0.00402321
-0.000933514 0.00647818 -0.00408877
-0.000732321 0.00638666 -0.00415945
-0.000527342 0.00623802 -0.00431923
-0.000322772 0.00609845 -0.00446478
-0.000116318 0.00593303 -0.0046506
8.53166e-05 0.00584268 -0.00471924
0.000294694 0.00563953 -0.00496377
0.000497816 0.00553151 -0.00505983
0.00069513 0.00550899 -0.00502257
0.000901621 0.00535548 -0.00518948
0.00110447 0.00525603 -0.00527206
-0.0215582 0.00710842 -0.0102975
-0.0213559 0.00720827 -0.0100653
-0.0211509 0.00746342 -0.00958616
-0.0209479 0.00763434 -0.00924118
-0.0207464 0.007738 -0.00900321
-0.0205457 0.00780982 -0.00881588
-0.0203432 0.00800393 -0.00843434
-0.0201409 0.00820813 -0.00803689
-0.0199406 0.00830052 -0.00781716
-0.0197399 0.00844025 -0.00752232
-0.0195405 0.00849349 -0.00736494
-0.0193403 0.00863843 -0.00706201
-0.0191419 0.00864066 -0.00698567
-0.0189432 0.00867186 -0.00686344
-0.0187438 0.00879995 -0.00658746
-0.018545 0.00887945 -0.00638867
-0.0183465 0.00894609 -0.00621034
-0.0181479 0.00905135 -0.00597078
-0.0179502 0.00904712 -0.00590494
-0.0177523 0.00909808 -0.00575159
-0.0175541 0.00921925 -0.00548707
-0.0173565 0.00926413 -0.00534346
-0.0171592 0.0092813 -0.00524381
-0.0169618 0.00935117 -0.00506071
-0.0167646 0.00936951 -0.00495928
-0.0165675 0.00941019 -0.00482249
-0.0163705 0.00938705 -0.00478682
-0.0161736 0.00943088 -0.0046451
-0.0159769 0.00951608 -0.00443799
-0.0157802 0.00954695 -0.00431687
-0.0155834 0.00950374 -0.00431295
-0.0153869 0.00953455 -0.00419202
-0.0151905 0.00956503 -0.00407159
-0.0149943 0.00960481 -0.00393649
-0.0147978 0.00959815 -0.00387484
-0.014602 0.00967523 -0.00368089
-0.0144056 0.0096571 -0.00363742
-0.0142091 0.00961268 -0.00363548
-0.0140131 0.0096391 -0.00352166
-0.0138176 0.00969398 -0.00336292
-0.0136208 0.0096272 -0.00339628
-0.0134255 0.00967801 -0.00324399
-0.0132294 0.00966759 -0.00318845
-0.0130341 0.00970637 -0.0030552
-0.0128387 0.00973138 -0.00294376
-0.0126425 0.00970214 -0.00291791
-0.0124469 0.00971142 -0.00283129
-0.0122511 0.00969634 -0.00278313
-0.0120537 0.00959606 -0.00286926
-0.0118584 0.00961392 -0.00276916
-0.0116621 0.00957555 -0.00275767
-0.0114661 0.00955129 -0.00272395
-0.0112711 0.00957296 -0.00261792
-0.0110763 0.00960121 -0.00250152
-0.0108809 0.00960091 -0.00243007
-0.0106849 0.00957113 -0.00240513
-0.0104883 0.00951808 -0.00241674
-0.0102937 0.00954236 -0.00230668
-0.0100963 0.00945767 -0.00236808
-0.00989985 0.00941039 -0.00237061
-0.00970407 0.00938918 -0.00233211
-0.00950925 0.00940068 -0.00224219
-0.00931185 0.00932154 -0.00229474
-0.0091156 0.00928347 -0.00228277
-0.00892083 0.00929352 -0.00219512
-0.00872338 0.00921706 -0.00224346
-0.00852722 0.00918236 -0.00222614
-0.00833036 0.00912647 -0.0022421
-0.00813465 0.00910556 -0.00220313
-0.00793812 0.00906016 -0.00220259
-0.00774178 0.0090211 -0.00219208
-0.00754355 0.0089306 -0.00226231
-0.00734716 0.00889198 -0.00225108
-0.00715031 0.00884146 -0.00225851
-0.00695217 0.00875849 -0.00231689
-0.00675526 0.00870876 -0.00232303
-0.00655876 0.0086697 -0.00231241
-0.006361 0.00860037 -0.00234927
-0.00616359 0.00854081 -0.0023708
-0.00596525 0.00846062 -0.00242464
-0.00576592 0.00835945 -0.00251131
-0.00557127 0.00836597 -0.0024292
-0.00537068 0.00823993 -0.00255476
-0.00517313 0.0081832 -0.00257172
-0.00497276 0.00806724 -0.00268144
-0.00477436 0.0079953 -0.00272211
-0.00457729 0.0079523 -0.00271752
-0.00437742 0.00785263 -0.00280157
-0.00417829 0.00776973 -0.00285934
-0.00397976 0.0077005 -0.00289572
-0.00378053 0.00761877 -0.0029516
-0.00358362 0.00758286 -0.0029358
-0.00338294 0.00747607 -0.00303081
-0.00318115 0.00735109 -0.0031542
-0.00297994 0.00723955 -0.00325653
-0.00278014 0.00715532 -0.0033161
-0.00258128 0.00708935 -0.00334715
-0.00237902 0.00696496 -0.00346941
-0.00217693 0.00684596 -0.00358321
-0.00197686 0.00676381 -0.00363942
-0.00177584 0.00666699 -0.00371846
-0.00157345 0.00654921 -0.0038302
-0.00137187 0.00644686 -0.00391778
-0.00117136 0.00636359 -0.00397553
-0.000971054 0.00628482 -0.00402625
-0.000769717 0.00619108 -0.00410032
-0.00055736 0.00592775 -0.00443878
-0.000356863 0.00585194 -0.00448472
-0.00015145 0.00570269 -0.00464509
5.36309e-05 0.00556124 -0.0047933
0.000262534 0.00536577 -0.00502554
0.000461396 0.00532097 -0.00502299
-0.0216054 0.0065443 -0.0108208
-0.0213971 0.00692411 -0.0101438
-0.0211952 0.00700899 -0.00993561
-0.0209894 0.00731572 -0.00937515
-0.0207861 0.00751666 -0.00898283
-0.0205867 0.00750898 -0.0089219
-0.0203839 0.00771181 -0.00852684
-0.0201823 0.00786246 -0.0082147
-0.0199818 0.00795616 -0.00799303
-0.0197806 0.00812305 -0.00765532
-0.0195805 0.00822174 -0.00742592
-0.0193806 0.00832705 -0.0071861
-0.0191813 0.00840201 -0.00699445
-0.0189829 0.00839911 -0.00692631
-0.0187836 0.00850094 -0.00669222
-0.0185839 0.00867593 -0.00634221
-0.0183856 0.00871026 -0.00621521
-0.0181873 0.00876868 -0.00605009
-0.0179892 0.00881091 -0.00591064
-0.0177911 0.00887947 -0.00572956
-0.0175935 0.00888307 -0.00565137
-0.0173956 0.00895559 -0.0054641
-0.017198 0.00902014 -0.00528948
-0.0170004 0.00910056 -0.00508985
-0.0168032 0.00912877 -0.00497287
-0.0166061 0.00914435 -0.00487586
-0.016409 0.00920201 -0.00471234
-0.016212 0.00917619 -0.00468088
-0.0160151 0.00920335 -0.00456568
-0.0158183 0.00922224 -0.00446357
-0.0156216 0.00924246 -0.00435935
-0.015425 0.0092751 -0.00423556
-0.0152285 0.00930239 -0.00412025
-0.0150322 0.0093349 -0.00399675
-0.0148358 0.0093558 -0.00389158
-0.0146397 0.00939948 -0.00375052
-0.0144428 0.00932858 -0.00379034
-0.0142469 0.00937382 -0.00364681
-0.0140507 0.00937639 -0.00357068
-0.0138548 0.00940238 -0.00345761
-0.0136587 0.00940369 -0.00338354
-0.0134615 0.00931046 -0.00345852
-0.0132667 0.00941113 -0.00322774
-0.0130713 0.00945074 -0.00309328
-0.0128758 0.00947477 -0.00298348
-0.0126792 0.00942057 -0.00299694
-0.012484 0.00945821 -0.00286564
-0.0122878 0.00942351 -0.00284841
-0.0120923 0.00943469 -0.00275887
-0.0118958 0.00938916 -0.00275866
-0.0116996 0.00935733 -0.00273687
-0.0115042 0.00936118 -0.0026589
-0.0113078 0.00932126 -0.00264984
-0.0111131 0.00935582 -0.00252356
-0.0109182 0.00938028 -0.00241326
-0.0107213 0.00931336 -0.00244669
-0.0105258 0.0093072 -0.00238452
-0.0103286 0.00923111 -0.00243229
-0.0101336 0.00924097 -0.002345
-0.00993643 0.00916932 -0.00238577
-0.00974001 0.00912644 -0.00238132
-0.00954355 0.00908329 -0.00237731
-0.00934813 0.00907598 -0.00231694
-0.00915187 0.00903872 -0.00230364
-0.00895638 0.00902789 -0.00224883
-0.00875994 0.00898557 -0.00224348
-0.00856323 0.00893483 -0.0022513
-0.00836687 0.00889588 -0.00224063
-0.00817115 0.00887614 -0.0021998
-0.00797379 0.00880807 -0.00223482
-0.00777749 0.00877167 -0.00222009
-0.00757966 0.00869366 -0.00227063
-0.00738292 0.00864687 -0.00227222
-0.00718645 0.00860765 -0.00226186
-0.0069881 0.00852015 -0.00232721
-0.006791 0.00846682 -0.00233895
-0.00659503 0.00844229 -0.00230558
-0.00639675 0.00836123 -0.00236075
-0.00619873 0.00828819 -0.00240331
-0.00600267 0.00826256 -0.0023716
-0.00580241 0.00814002 -0.00249162
-0.00560641 0.0081171 -0.00245563
-0.00540704 0.00801913 -0.00253714
-0.00520864 0.00794431 -0.00258234
-0.0050104 0.00787472 -0.00261935
-0.00481221 0.0078074 -0.00265275
-0.00461134 0.00768568 -0.00277123
-0.00441389 0.0076368 -0.00277578
-0.00421442 0.00754762 -0.00284329
-0.00401562 0.00747341 -0.00288735
-0.00381723 0.00740876 -0.00291646
-0.00361643 0.00729876 -0.00301639
-0.00341591 0.00719655 -0.0031041
-0.00321721 0.00713016 -0.00313583
-0.00301567 0.00701281 -0.00324709
-0.0028148 0.00690992 -0.00333571
-0.00261463 0.0068215 -0.00340173
-0.00241316 0.00671197 -0.00350063
-0.00221577 0.00667505 -0.0034862
-0.00201487 0.00657829 -0.00356511
-0.00181495 0.00649986 -0.0036154
-0.00161374 0.00640124 -0.00369711
-0.00141084 0.00627674 -0.00381914
-0.00120714 0.00614167 -0.00395763
-0.00100897 0.00609747 -0.00395437
-0.000798659 0.00586202 -0.0042491
-0.000190289 0.00552842 -0.00455216
1.67341e-05 0.00535737 -0.00474622
0.000224194 0.00518313 -0.0049452
0.000423827 0.0051271 -0.00496011
-0.0218582 0.00577227 -0.0117467
-0.0216502 0.0060957 -0.0111595
-0.0214433 0.00639596 -0.0106094
-0.0212353 0.00677796 -0.00992969
-0.0210311 0.00699347 -0.0095144
-0.020826 0.0072813 -0.00898459
-0.0206258 0.00731589 -0.00885664
-0.0204235 0.00748829 -0.00851016
-0.0202224 0.00760006 -0.00825995
-0.0200227 0.0076385 -0.00812607
-0.0198216 0.00778351 -0.00782331
-0.0196206 0.00794053 -0.00750164
-0.0194204 0.00806572 -0.00723042
-0.0192208 0.00814916 -0.0070255
-0.0190214 0.00824277 -0.00680456
-0.0188232 0.00823274 -0.0067478
-0.0186237 0.00836444 -0.0064666
-0.0184248 0.00846199 -0.0062396
-0.0182263 0.00853166 -0.00605679
-0.0180284 0.00853889 -0.00597284
-0.0178299 0.0086707 -0.00569179
-0.0176323 0.00865094 -0.00565058
-0.0174345 0.00869747 -0.0055046
-0.0172369 0.00875464 -0.00534179
-0.0170392 0.00884607 -0.00512486
-0.0168418 0.00891553 -0.00494277
-0.0166447 0.00886291 -0.00495361
-0.0164475 0.00883761 -0.0049213
-0.0162505 0.00890127 -0.00474842
-0.0160535 0.00897443 -0.0045606
-0.0158567 0.00899254 -0.00445977
-0.0156597 0.00894904 -0.00445625
-0.0154633 0.00905431 -0.0042179
-0.0152668 0.00907743 -0.00410925
-0.0150699 0.00902734 -0.00411612
-0.0148738 0.00910186 -0.00392645
-0.0146774 0.00911438 -0.00383457
-0.0144806 0.00907428 -0.00382575
-0.0142849 0.00915217 -0.00363084
-0.0140892 0.00920941 -0.00346855
-0.0138917 0.00908255 -0.0035965
-0.0136957 0.00910156 -0.00349451
-0.0135001 0.00914944 -0.00334706
-0.0133044 0.0091796 -0.00322756
-0.0131084 0.00917528 -0.00316238
-0.012913 0.00921542 -0.00302723
-0.0127172 0.00921921 -0.00294935
-0.012521 0.00919735 -0.00291185
-0.0123248 0.00917145 -0.0028807
-0.0121283 0.00912919 -0.00287528
-0.0119327 0.0091322 -0.00279865
-0.0117368 0.00911865 -0.0027481
-0.0115406 0.00908956 -0.00272197
-0.0113454 0.00910831 -0.00262058
-0.0111483 0.00903764 -0.00265987
-0.0109529 0.00904279 -0.0025799
-0.0107583 0.00908254 -0.0024456
-0.0105618 0.00903337 -0.00245108
-0.0103659 0.00901247 -0.00241205
-0.0101698 0.00898178 -0.00238847
-0.00997337 0.00894121 -0.0023804
-0.00977756 0.00892218 -0.00233846
-0.00958056 0.00886023 -0.00236394
-0.00938532 0.00886074 -0.00229134
-0.00918876 0.00881492 -0.00229141
-0.00899311 0.00879978 -0.0022434
-0.00879704 0.00877056 -0.00221746
-0.00860008 0.00871323 -0.00223561
-0.00840385 0.00867912 -0.0022173
-0.0082052 0.00857319 -0.00231163
-0.00801088 0.00859627 -0.00220365
-0.00781316 0.0085204 -0.00225077
-0.00761436 0.00841683 -0.00234128
-0.00741885 0.00840556 -0.00228711
-0.0072203 0.00831257 -0.00236102
-0.00702455 0.00829505 -0.0023166
-0.00682716 0.0082352 -0.00233854
-0.00662969 0.0081743 -0.00236209
-0.00643347 0.0081453 -0.00233567
-0.00623406 0.00803944 -0.00242954
-0.0060367 0.00798451 -0.00244363
-0.00583967 0.00793827 -0.00244413
-0.00564238 0.00788649 -0.00245329
-0.00544619 0.00786013 -0.00242272
-0.00524809 0.0077915 -0.00245821
-0.00504725 0.0076654 -0.00258348
-0.00484671 0.00754879 -0.00269388
-0.00464805 0.0074741 -0.00273869
-0.00444859 0.00738439 -0.00280697
-0.00425135 0.00734125 -0.00280248
-0.00405196 0.00725563 -0.00286431
-0.00385227 0.00716606 -0.00293222
-0.00365332 0.00709231 -0.00297544
-0.00344966 0.00693082 -0.00315554
-0.00325199 0.00688476 -0.00315545
-0.00305366 0.0068271 -0.00317348
-0.00285193 0.0067087 -0.0032862
-0.0026529 0.0066407 -0.00332027
-0.0024531 0.00656042 -0.00337347
-0.00225244 0.00646634 -0.00344813
-0.00205211 0.00637968 -0.0035112
-0.00184781 0.0062274 -0.00367646
-0.0016471 0.0061381 -0.00374357
-0.00144709 0.00606202 -0.00378999
-0.00124194 0.00590333 -0.00396505
-0.00103438 0.0057095 -0.00419478
-0.000830858 0.00558358 -0.00431867
-0.000628806 0.00548295 -0.00440312
-0.000428451 0.00541014 -0.00444425
-0.000220293 0.00521943 -0.00466878
-1.40821e-05 0.00506178 -0.00484179
0.000186273 0.00499428 -0.00487451
0.000386569 0.00492853 -0.00490448
-0.021695 0.00565232 -0.0114891
-0.02149 0.00584597 -0.0111085
-0.0212806 0.00627854 -0.0103492
-0.0210652 0.00706621 -0.00902711
-0.0208658 0.00705545 -0.0089711
-0.0206651 0.0071119 -0.00880862
-0.0204629 0.00727697 -0.00847405
-0.020263 0.00731348 -0.00834327
-0.0200629 0.00736599 -0.00818714
-0.0198619 0.00749956 -0.00790277
-0.0196608 0.00765475 -0.00758421
-0.01946 0.00781318 -0.00726066
-0.0192611 0.00783501 -0.00715341
-0.0190618 0.00790867 -0.00696415
-0.0188625 0.00799283 -0.00675834
-0.0186634 0.00807694 -0.00655267
-0.0184649 0.00812135 -0.00640983
-0.0182658 0.00823931 -0.00615082
-0.0180674 0.00831274 -0.00596221
-0.0178692 0.00836267 -0.00581085
-0.0176712 0.00842801 -0.00563514
-0.0174734 0.00845616 -0.00551827
-0.0172757 0.00848544 -0.00539964
-0.0170781 0.00853638 -0.00524683
-0.0168807 0.00856975 -0.00512185
-0.0166833 0.00858603 -0.00502381
-0.016486 0.00867041 -0.00481831
-0.0162889 0.0086243 -0.00481887
-0.0160919 0.00868121 -0.00465681
-0.015895 0.00873141 -0.0045054
-0.0156981 0.0087344 -0.0044285
-0.0155015 0.00879351 -0.00426313
-0.0153047 0.00879107 -0.00419485
-0.015108 0.00878929 -0.00412554
-0.0149116 0.00882343 -0.00399961
-0.0147152 0.00885352 -0.00388013
-0.0145189 0.00888119 -0.00376446
-0.014322 0.00881746 -0.00379284
-0.0141257 0.00883259 -0.00369698
-0.0139296 0.00885155 -0.00359508
-0.0137327 0.00880339 -0.00359887
-0.0135371 0.008855 -0.00344564
-0.0133419 0.00893134 -0.00325354
-0.0131457 0.00892417 -0.00319288
-0.0129502 0.00895913 -0.00306593
-0.0127537 0.00892021 -0.00305527
-0.0125579 0.00892687 -0.00297289
-0.0123619 0.00892035 -0.00291123
-0.0121656 0.00888966 -0.00288764
-0.0119696 0.00887747 -0.00283491
-0.0117734 0.0088538 -0.00280023
-0.0115763 0.00878129 -0.00284233
-0.0113818 0.00884054 -0.00267739
-0.0111857 0.00881905 -0.00263933
-0.0109907 0.00884081 -0.00253335
-0.0107952 0.00884241 -0.00245905
-0.0105986 0.0087936 -0.00246388
-0.0104036 0.00881004 -0.00236628
-0.0102068 0.00875656 -0.00237846
-0.0100099 0.0086976 -0.00239919
-0.00981345 0.00865649 -0.0023919
-0.00961708 0.00861901 -0.00237887
-0.00942108 0.00859512 -0.00234457
-0.00922463 0.00855544 -0.002335
-0.00902857 0.00852896 -0.00230475
-0.00883281 0.00851248 -0.00225884
-0.00863528 0.00843872 -0.00230264
-0.00843898 0.00840514 -0.00228351
-0.00824248 0.00836563 -0.00227363
-0.00804454 0.00828395 -0.00232976
-0.00784928 0.00828123 -0.00226227
-0.00765134 0.00820284 -0.00231322
-0.00745433 0.00815135 -0.00232202
-0.0072561 0.00806836 -0.00238017
-0.00706055 0.00805768 -0.00232511
-0.00686352 0.00800775 -0.00233144
-0.00666531 0.00792927 -0.00238241
-0.00646906 0.00790077 -0.00235517
-0.00626957 0.00779414 -0.00245013
-0.00607249 0.00774731 -0.00245155
-0.0058772 0.0077422 -0.00238777
-0.00567798 0.00764703 -0.00246465
-0.00548025 0.00758718 -0.0024864
-0.00528524 0.00758825 -0.00241292
-0.0050824 0.00741877 -0.00260576
-0.00488287 0.00732462 -0.00268096
-0.00468798 0.0073293 -0.00260183
-0.00448701 0.00720771 -0.00271977
-0.00428748 0.00711817 -0.00278764
-0.00408782 0.0070278 -0.00285677
-0.00388898 0.00695545 -0.00289774
-0.00368852 0.00685309 -0.00298552
-0.00349163 0.00682051 -0.00296442
-0.00328816 0.00666515 -0.00313472
-0.00308703 0.00655632 -0.00323243
-0.0028896 0.00651697 -0.0032218
-0.00268718 0.00638852 -0.00335002
-0.00248646 0.00629275 -0.00342725
-0.00228575 0.00619901 -0.00350127
-0.00208686 0.00613787 -0.00352447
-0.00188381 0.00600732 -0.00365572
-0.00168175 0.00589594 -0.00375707
-0.0014766 0.0057357 -0.00393438
-0.00127213 0.00558983 -0.00408927
-0.00106822 0.00545564 -0.00422594
-0.000868925 0.00539758 -0.00424413
-0.000666796 0.00529563 -0.00433054
-0.000461832 0.00515144 -0.00448256
-0.000255033 0.00498198 -0.00467378
0.000358092 0.00460022 -0.00505033
0.00223697 0.00303627 -0.00682584
0.00243697 0.00299308 -0.0068202
0.00262651 0.00308705 -0.00660194
-0.0215315 0.00555339 -0.0111986
-0.0213254 0.00581536 -0.0107102
-0.0211195 0.00608814 -0.0102048
-0.0209101 0.00657906 -0.00935416
-0.0207045 0.00690774 -0.00876075
-0.0205059 0.00685198 -0.00877604
-0.0203031 0.00705285 -0.00838516
-0.0201018 0.00718214 -0.0081077
-0.0199016 0.00726162 -0.00790909
-0.0197017 0.00732329 -0.00773877
-0.0195003 0.00751539 -0.00736217
-0.0193014 0.00752842 -0.00726885
-0.0191009 0.00769483 -0.00693313
-0.0189018 0.0077555 -0.00676459
-0.0187037 0.00772376 -0.00674219
-0.0185038 0.00791504 -0.00636742
-0.018305 0.00798862 -0.00617866
-0.018107 0.00798796 -0.00610719
-0.0179086 0.00806795 -0.00590845
-0.0177106 0.00809649 -0.00579099
-0.0175126 0.00815315 -0.00562913
-0.0173147 0.00820698 -0.00547179
-0.017117 0.00824015 -0.00534714
-0.0169193 0.00834827 -0.00510428
-0.0167219 0.00836737 -0.00500186
-0.0165246 0.00839242 -0.00489013
-0.0163274 0.00843862 -0.00474504
-0.0161303 0.00844742 -0.00465898
-0.0159333 0.00847783 -0.00453887
-0.0157364 0.00848157 -0.00446083
-0.0155396 0.008497 -0.00436441
-0.015343 0.00856636 -0.00418302
-0.0151464 0.00859119 -0.00407183
-0.0149498 0.008602 -0.00398273
-0.0147531 0.0085895 -0.00393035
-0.0145563 0.00856204 -0.00390154
-0.0143599 0.00857613 -0.00380734
-0.0141635 0.00859022 -0.00371317
-0.0139673 0.00860536 -0.00361735
-0.0137705 0.00856559 -0.00360792
-0.0135752 0.00865052 -0.00340241
-0.0133788 0.00863873 -0.00334901
-0.0131831 0.00867004 -0.00322787
-0.0129873 0.008693 -0.00311989
-0.0127909 0.0086653 -0.00309153
-0.0125952 0.00868024 -0.00299618
-0.0123987 0.00864495 -0.00297974
-0.0122023 0.00861546 -0.0029542
-0.0120051 0.00854192 -0.00299785
-0.0118099 0.00857649 -0.00287172
-0.0116136 0.00855224 -0.00283793
-0.0114175 0.00853532 -0.00279267
-0.0112223 0.00855903 -0.00268368
-0.0110273 0.00858703 -0.00256795
-0.0108318 0.00858855 -0.00249379
-0.0106368 0.0086128 -0.00238403
-0.0104391 0.00852125 -0.0024558
-0.0102431 0.00849787 -0.0024207
-0.0100472 0.00848045 -0.00237628
-0.00985134 0.00846333 -0.00233135
-0.00965424 0.00840027 -0.00235841
-0.00945792 0.00836628 -0.00233992
-0.00926169 0.00833577 -0.00231596
-0.00906493 0.00828722 -0.00232027
-0.00886805 0.00823583 -0.00232901
-0.00867076 0.0081721 -0.00235702
-0.00847572 0.00818006 -0.00227285
-0.00827832 0.00811432 -0.00230398
-0.00808278 0.00810445 -0.0022477
-0.00788432 0.00801037 -0.00232315
-0.00768616 0.00792764 -0.00238078
-0.00748879 0.00786822 -0.00240195
-0.00729326 0.00786001 -0.00234303
-0.00709613 0.00780846 -0.00235189
-0.00689849 0.00774445 -0.0023802
-0.00669966 0.00765179 -0.00245322
-0.00650443 0.00765063 -0.00238329
-0.00630585 0.00756691 -0.0024423
-0.00610823 0.00750807 -0.00246242
-0.00591061 0.00745035 -0.00248078
-0.00571248 0.00738168 -0.00251619
-0.00551387 0.00730372 -0.00256609
-0.00531652 0.00725518 -0.00257007
-0.00511893 0.00720162 -0.00258184
-0.00491934 0.00710667 -0.00265819
-0.00471984 0.00701542 -0.00272869
-0.00452349 0.00699117 -0.00269471
-0.00432556 0.00693456 -0.00271114
-0.00412329 0.00679186 -0.00286173
-0.00392397 0.00671093 -0.00291602
-0.00372174 0.00657513 -0.00305577
-0.0035238 0.00652412 -0.00306335
-0.00332393 0.00643754 -0.00312629
-0.00312507 0.00637129 -0.00315758
-0.00292308 0.00624893 -0.00327618
-0.00272294 0.00616232 -0.00333909
-0.00252246 0.00607123 -0.0034089
-0.00232184 0.00597934 -0.00347994
-0.00212118 0.0058885 -0.00354932
