-0.00221063 0.0303573 -0.0246479
-0.00222416 0.0303088 -0.0248437
-0.00220635 0.0302782 -0.0250363
-0.00218566 0.0302493 -0.0252287
-0.00224102 0.0301769 -0.0254287
-0.00230316 0.0301005 -0.0256295
-0.00231996 0.0300501 -0.0258258
-0.00233062 0.0300032 -0.0260215
-0.00227139 0.0299964 -0.0262101
-0.00241355 0.029874 -0.0264193
-0.00247551 0.0297977 -0.0266205
-0.00259608 0.0296876 -0.0268278
-0.00269322 0.029591 -0.0270328
-0.00270145 0.0295454 -0.0272286
-0.00272082 0.0294934 -0.0274256
-0.00277825 0.0294196 -0.0276267
-0.00295918 0.0292747 -0.0278411
-0.00309823 0.0291539 -0.0280511
-0.00312329 0.0290986 -0.0282491
-0.00323471 0.0289936 -0.0284565
-0.00349474 0.0288031 -0.0286801
-0.00359534 0.0287043 -0.0288866
-0.00370179 0.028602 -0.0290939
-0.00371732 0.028552 -0.0292913
-0.00366307 0.0285422 -0.029481
-0.00361704 0.0285277 -0.0296716
-0.0131429 0.028273 -0.00462459
-0.012552 0.028564 -0.00479549
-0.0121079 0.0287726 -0.00497254
-0.0117504 0.0289326 -0.00515317
-0.0113648 0.0291084 -0.00533215
-0.0110525 0.0292431 -0.00551423
-0.0106864 0.0294081 -0.00569345
-0.0104097 0.0295229 -0.00587663
-0.0100132 0.0297051 -0.0060537
-0.00977859 0.0297963 -0.00623839
-0.00956624 0.029875 -0.00642397
-0.0094163 0.0299185 -0.0066125
-0.00928995 0.0299488 -0.00680209
-0.00905223 0.0300419 -0.00698586
-0.00888068 0.0300977 -0.00717285
-0.008685 0.0301671 -0.00735841
-0.00839295 0.030291 -0.00753871
-0.00829194 0.0303071 -0.00772893
-0.00811769 0.0303645 -0.00791512
-0.0079343 0.0304272 -0.00810065
-0.00791958 0.0303947 -0.00829529
-0.00777044 0.0304381 -0.00848247
-0.00765509 0.0304624 -0.00867143
-0.00758587 0.0304607 -0.00886288
-0.00757224 0.0304276 -0.00905747
-0.00743736 0.030463 -0.00924508
-0.00740106 0.0304427 -0.00943828
-0.00744387 0.0303777 -0.0096361
-0.00729692 0.03042 -0.0098228
-0.00732484 0.0303634 -0.0100198
-0.00728959 0.0303426 -0.010213
-0.00723305 0.0303338 -0.0104049
-0.0072634 0.0302758 -0.0106021
-0.00724042 0.030248 -0.0107961
-0.00724535 0.0302044 -0.0109917
-0.00731441 0.0301245 -0.0111915
-0.0072874 0.0300989 -0.0113852
-0.00729454 0.0300541 -0.0115812
-0.00749457 0.0298999 -0.0117894
-0.00749632 0.0298581 -0.0119852
-0.00737513 0.0298859 -0.0121729
-0.00742879 0.0298146 -0.012372
-0.00756287 0.0296977 -0.0125765
-0.00768068 0.02959 -0.0127801
-0.00774264 0.029514 -0.0129801
-0.00778929 0.0294466 -0.0131791
-0.00779306 0.0294035 -0.0133753
-0.00791404 0.029294 -0.0135795
-0.00782541 0.0293033 -0.0137694
-0.00780997 0.0292711 -0.0139643
-0.00778588 0.0292438 -0.0141586
-0.00771645 0.0292422 -0.0143498
-0.0077234 0.0291973 -0.0145463
-0.00768727 0.0291768 -0.0147397
-0.00767946 0.0291402 -0.0149352
-0.0075882 0.0291511 -0.0151246
-0.00759005 0.029109 -0.0153208
-0.00740035 0.0291758 -0.0155029
-0.00730906 0.0291868 -0.0156921
-0.0071319 0.0292465 -0.0158748
-0.00700912 0.0292753 -0.0160615
-0.0066626 0.0294314 -0.0162311
-0.00650803 0.0294784 -0.016415
-0.00640415 0.0294966 -0.0166027
-0.00606049 0.0296512 -0.0167718
-0.00570641 0.0298118 -0.0169398
-0.00535517 0.0299708 -0.0171076
-0.00508997 0.030081 -0.0172819
-0.0050073 0.0300872 -0.0174704
-0.00469438 0.0302246 -0.0176405
-0.00448437 0.0303035 -0.0178185
-0.00416799 0.030443 -0.0179878
-0.00401195 0.0304912 -0.0181698
-0.00390533 0.0305112 -0.0183557
-0.00385735 0.0304978 -0.0185463
-0.00381257 0.0304827 -0.0187371
-0.00373756 0.0304847 -0.0189254
-0.0036813 0.0304761 -0.0191152
-0.00362877 0.0304653 -0.0193054
-0.00360229 0.0304397 -0.0194977
-0.00358026 0.0304116 -0.0196903
-0.00354574 0.0303905 -0.0198819
-0.00349445 0.0303791 -0.020072
-0.00345973 0.0303582 -0.0202636
-0.00324341 0.030441 -0.0204392
-0.00295292 0.0305662 -0.0206082
-0.00276373 0.0306336 -0.0207859
-0.00266754 0.0306479 -0.0209716
-0.00265591 0.0306139 -0.0211648
-0.00257206 0.0306211 -0.0213515
-0.00244237 0.0306546 -0.0215341
-0.00229652 0.0306973 -0.021715
-0.00230816 0.03065 -0.0219102
-0.00236016 0.0305796 -0.0221092
-0.00218875 0.030637 -0.0222876
-0.00209799 0.0306482 -0.0224733
-0.00203508 0.0306436 -0.0226616
-0.0019643 0.0306434 -0.022849
-0.00188935 0.0306457 -0.0230361
-0.00187761 0.0306118 -0.0232291
-0.00195411 0.0305273 -0.0234305
-0.00190208 0.0305164 -0.0236197
-0.00194661 0.0304502 -0.0238181
-0.00190685 0.0304323 -0.0240085
-0.00189533 0.0303982 -0.0242016
-0.00188003 0.0303663 -0.0243944
-0.00194371 0.030289 -0.0245949
-0.00189763 0.0302747 -0.0247846
-0.00190529 0.0302296 -0.0249797
-0.00192642 0.0301768 -0.0251761
-0.00188214 0.0301614 -0.0253661
-0.00181732 0.0301579 -0.0255539
-0.00191729 0.0300598 -0.0257584
-0.00197177 0.0299877 -0.0259584
-0.00210208 0.0298721 -0.0261663
-0.00208815 0.0298393 -0.0263594
-0.0022205 0.0297225 -0.0265677
-0.00223775 0.0296718 -0.0267642
-0.00226729 0.029614 -0.026962
-0.00242307 0.0294836 -0.0271731
-0.0024446 0.0294304 -0.0273703
-0.00250264 0.0293561 -0.0275713
-0.00261539 0.0292504 -0.0277783
-0.00257967 0.02923 -0.0279695
-0.00282913 0.0290456 -0.0281914
-0.00301875 0.0288956 -0.0284071
-0.00308403 0.0288171 -0.0286095
-0.00311655 0.0287574 -0.0288084
-0.00326283 0.0286321 -0.0290198
-0.00336105 0.0285346 -0.0292262
-0.00345661 0.0284385 -0.0294323
-0.00360633 0.0283112 -0.0296446
-0.0132528 0.0280269 -0.00439983
-0.0124463 0.0284395 -0.00456151
-0.0121039 0.0285911 -0.00474338
-0.0117336 0.0287584 -0.00492367
-0.0112431 0.0289934 -0.00509803
-0.0108314 0.0291843 -0.0052756
-0.010684 0.0292263 -0.00546527
-0.0102177 0.029448 -0.00563959
-0.00996283 0.0295506 -0.00582366
-0.00966539 0.0296773 -0.00600541
-0.00947037 0.0297463 -0.00619193
-0.00937855 0.0297572 -0.00638341
-0.00925664 0.029785 -0.00657331
-0.00908114 0.029843 -0.00676037
-0.00878966 0.0299666 -0.00694134
-0.00869477 0.0299793 -0.00713222
-0.00838757 0.0301118 -0.00731192
-0.00813004 0.0302163 -0.00749395
-0.00795965 0.0302716 -0.00768038
-0.00784151 0.0302976 -0.00786948
-0.00767215 0.0303524 -0.00805569
-0.00755931 0.0303753 -0.00824486
-0.00753247 0.0303497 -0.00843868
-0.00743562 0.0303636 -0.00862859
-0.00737925 0.0303547 -0.00882072
-0.0072354 0.0303953 -0.00900782
-0.00723088 0.030357 -0.0092028
-0.00715718 0.0303579 -0.00939378
-0.00706212 0.0303709 -0.00958348
-0.0069878 0.0303722 -0.0097743
-0.00700194 0.0303234 -0.00997033
-0.00704306 0.0302594 -0.010168
-0.00690147 0.0302987 -0.0103547
-0.00699019 0.0302077 -0.0105553
-0.00694483 0.0301926 -0.0107478
-0.00692632 0.0301623 -0.010942
-0.00705414 0.0300491 -0.0111452
-0.00693512 0.0300757 -0.0113331
-0.00698949 0.030004 -0.0115319
-0.00706193 0.0299222 -0.0117319
-0.00707675 0.0298729 -0.0119283
-0.00685681 0.0299568 -0.0121095
-0.00693441 0.0298719 -0.0123099
-0.00688632 0.0298583 -0.0125022
-0.00681498 0.0298579 -0.0126929
-0.00653886 0.0299738 -0.0128698
-0.00662009 0.0298869 -0.0130706
-0.00669961 0.0298009 -0.0132714
-0.0067242 0.029746 -0.0134685
-0.00676944 0.0296795 -0.013667
-0.00678952 0.0296272 -0.0138639
-0.00678588 0.0295884 -0.0140592
-0.00685659 0.0295073 -0.0142598
-0.0069514 0.0294126 -0.0144621
-0.00687251 0.0294165 -0.0146522
-0.00692706 0.0293445 -0.0148517
-0.00695714 0.0292865 -0.0150496
-0.00686066 0.0293004 -0.0152383
-0.00690739 0.0292329 -0.0154375
-0.00665963 0.0293329 -0.0156149
-0.00651595 0.0293737 -0.0157999
-0.00650147 0.0293411 -0.0159944
-0.0063687 0.0293757 -0.01618
-0.00626584 0.0293933 -0.0163678
-0.00599505 0.0295066 -0.0165426
-0.00583246 0.0295583 -0.0167255
-0.0055564 0.0296747 -0.0168995
-0.0051074 0.0298897 -0.0170597
-0.00503242 0.0298916 -0.0172488
-0.00493932 0.0299038 -0.0174365
-0.00476672 0.0299614 -0.0176178
-0.00427823 0.0301991 -0.0177736
-0.00412527 0.0302456 -0.017956
-0.00392491 0.0303191 -0.0181344
-0.0038363 0.0303289 -0.0183218
-0.00374844 0.0303383 -0.0185091
-0.00370853 0.0303204 -0.0187004
-0.00365213 0.0303118 -0.0188902
-0.00359588 0.0303032 -0.0190801
-0.00354212 0.0302932 -0.0192701
-0.003493 0.0302805 -0.0194605
-0.00347618 0.0302494 -0.0196535
-0.00326497 0.0303294 -0.01983
-0.00311637 0.0303736 -0.0200116
-0.00287808 0.030469 -0.0201854
-0.00268267 0.0305401 -0.0203626
-0.00256445 0.030567 -0.0205465
-0.00246374 0.0305839 -0.0207318
-0.00227729 0.0306499 -0.0209094
-0.00220427 0.030651 -0.021097
-0.0021328 0.0306512 -0.0212846
-0.00216328 0.0305932 -0.0214814
-0.00203823 0.0306241 -0.0216642
-0.00201428 0.0305971 -0.0218561
-0.00192539 0.0306074 -0.022042
-0.00189113 0.0305863 -0.0222329
-0.00183376 0.0305785 -0.0224216
-0.00178234 0.0305673 -0.0226108
-0.00170791 0.0305693 -0.0227979
-0.00167294 0.0305487 -0.0229886
-0.00158869 0.0305563 -0.0231747
-0.0016788 0.030464 -0.0233773
-0.00162896 0.0304519 -0.0235666
-0.00164468 0.0304023 -0.0237621
-0.00163731 0.0303658 -0.0239555
-0.00157372 0.0303616 -0.0241435
-0.0015725 0.0303216 -0.0243375
-0.00154079 0.0302991 -0.0245285
-0.00159061 0.0302298 -0.0247276
-0.00159508 0.0301865 -0.0249222
-0.00156062 0.0301656 -0.025113
-0.00156399 0.0301229 -0.0253075
-0.00157451 0.0300762 -0.0255029
-0.00155752 0.0300452 -0.0256954
-0.00165906 0.0299461 -0.0259001
-0.00180187 0.0298232 -0.0261091
-0.00185133 0.029754 -0.0263086
-0.00178258 0.0297528 -0.026496
-0.00194365 0.0296193 -0.0267073
-0.00207803 0.0295012 -0.026916
-0.00206886 0.0294657 -0.0271097
-0.00218956 0.0293554 -0.0273171
-0.00227438 0.0292657 -0.027521
-0.00233467 0.0291901 -0.0277223
-0.00236974 0.029129 -0.0279209
-0.00239687 0.0290725 -0.0281188
-0.00273753 0.0288354 -0.0283506
-0.00280057 0.0287581 -0.0285527
-0.00289417 0.0286632 -0.0287582
-0.00299977 0.0285613 -0.0289651
-0.00321671 0.0283953 -0.0291844
-0.00319512 0.0283667 -0.0293776
-0.00317121 0.0283394 -0.0295704
-0.00340182 0.0281654 -0.0297918
-0.0132949 0.0278188 -0.00417191
-0.0123996 0.0282819 -0.00433018
-0.0119981 0.0284668 -0.00450962
-0.0117483 0.0285664 -0.00469552
-0.0112333 0.0288156 -0.00486908
-0.0107401 0.0290525 -0.00504316
-0.0104189 0.0291925 -0.00522477
-0.0101148 0.029323 -0.0054069
-0.0096985 0.0295168 -0.00558339
-0.00949363 0.0295914 -0.00576966
-0.00945352 0.0295731 -0.00596377
-0.00935942 0.0295853 -0.00615521
-0.00926703 0.0295965 -0.00634665
-0.00921491 0.029585 -0.00654004
-0.00910071 0.0296085 -0.00673025
-0.00876577 0.0297568 -0.00690907
-0.0082897 0.0299848 -0.00708027
-0.00812534 0.0300367 -0.00726729
-0.00783305 0.0301611 -0.00744742
-0.0076303 0.0302348 -0.00763204
-0.00749862 0.0302685 -0.0078203
-0.00738414 0.0302924 -0.00800937
-0.00728474 0.0303078 -0.00819916
-0.00727227 0.0302741 -0.00839369
-0.00706888 0.0303484 -0.00857758
-0.00697914 0.0303584 -0.00876768
-0.00690844 0.0303576 -0.00895879
-0.00689853 0.0303225 -0.00915333
-0.00686598 0.0303001 -0.00934657
-0.0067504 0.0303248 -0.00953497
-0.00668654 0.0303202 -0.00972631
-0.00658748 0.0303355 -0.00991551
-0.0065486 0.0303168 -0.0101082
-0.00660369 0.0302448 -0.0103066
-0.00659089 0.0302113 -0.0105009
-0.0066606 0.030131 -0.0107003
-0.00651522 0.0301726 -0.0108865
-0.00654682 0.0301139 -0.0110836
-0.00655905 0.0300662 -0.0112795
-0.00645803 0.0300827 -0.0114683
-0.00624194 0.0301645 -0.0116497
-0.00630833 0.0300861 -0.011849
-0.00604628 0.030194 -0.0120271
-0.00610271 0.0301212 -0.0122258
-0.00599137 0.0301436 -0.0124135
-0.00611927 0.0300302 -0.0126171
-0.00558406 0.0302934 -0.0127764
-0.00526773 0.0303509 -0.0133394
-0.00534221 0.0302678 -0.0135393
-0.00492913 0.030462 -0.0137055
-0.00474018 0.0305287 -0.0138869
-0.00470689 0.0305069 -0.0140791
-0.00630417 0.0294759 -0.0147777
-0.00623287 0.0294756 -0.014968
-0.0062628 0.0294177 -0.0151656
-0.00625245 0.0293826 -0.0153603
-0.00618819 0.0293783 -0.015551
-0.00602557 0.0294301 -0.0157344
-0.00596072 0.0294261 -0.0159249
-0.00584273 0.0294524 -0.0161114
-0.00575331 0.0294625 -0.0163
-0.00563187 0.0294909 -0.016486
-0.00547027 0.0295421 -0.0166689
-0.00518638 0.0296631 -0.0168421
-0.00495156 0.0297562 -0.0170189
-0.00479842 0.0298028 -0.0172019
-0.00478213 0.0297712 -0.0173956
-0.00447709 0.0299045 -0.0175663
-0.00421134 0.0300154 -0.0177399
-0.00393284 0.0301336 -0.0179122
-0.00380893 0.0301636 -0.0180968
-0.00378437 0.0301368 -0.0182893
-0.00369908 0.0301448 -0.0184769
-0.00361324 0.0301531 -0.0186644
-0.00355036 0.0301483 -0.0188537
-0.00342468 0.0301794 -0.0190377
-0.00335177 0.0301804 -0.0192261
-0.00331847 0.0301587 -0.0194177
-0.00287266 0.0303729 -0.0195743
-0.00264193 0.0304641 -0.0197488
-0.00262014 0.0304359 -0.0199411
-0.0024347 0.0305013 -0.0201192
-0.00236319 0.0305016 -0.0203071
-0.00219714 0.0305559 -0.0204866
-0.00214251 0.0305466 -0.0206759
-0.00210982 0.0305247 -0.020867
-0.00192604 0.0305892 -0.0210447
-0.0019115 0.0305569 -0.0212373
-0.00187133 0.0305393 -0.0214277
-0.00179519 0.0305423 -0.0216148
-0.00167335 0.0305714 -0.0217977
-0.00175044 0.0304866 -0.0219987
-0.00152101 0.0305775 -0.0221715
-0.00154968 0.0305204 -0.0223681
-0.00140677 0.0305617 -0.0225487
-0.00145383 0.0304941 -0.022747
-0.00140771 0.0304799 -0.0229366
-0.00135085 0.0304719 -0.0231251
-0.0013707 0.0304198 -0.0233209
-0.001363 0.0303836 -0.0235142
-0.00121506 0.0304278 -0.0236939
-0.0013436 0.0303134 -0.0239003
-0.00122929 0.0303384 -0.0240832
-0.00127743 0.03027 -0.0242819
-0.00116339 0.0302949 -0.0244647
-0.00121739 0.0302232 -0.024664
-0.0012793 0.0301469 -0.0248642
-0.00129208 0.0300988 -0.0250596
-0.00133626 0.0300327 -0.0252582
-0.00128957 0.0300188 -0.0254476
-0.00140994 0.0299089 -0.025654
-0.00132138 0.0299191 -0.0258392
-0.00145637 0.0298007 -0.0260473
-0.00157885 0.0296894 -0.0262542
-0.0015863 0.0296443 -0.0264494
-0.00171942 0.0295269 -0.0266577
-0.00161936 0.0295437 -0.0268418
-0.00168076 0.0294675 -0.0270427
-0.00188057 0.0293116 -0.0272584
-0.00195346 0.0292288 -0.0274608
-0.00198977 0.029167 -0.0276594
-0.0021213 0.0290503 -0.0278683
-0.00226727 0.0289252 -0.0280789
-0.00226744 0.0288842 -0.0282738
-0.00238407 0.028776 -0.0284815
-0.00261456 0.0286021 -0.0287017
-0.00271613 0.0285025 -0.0289081
-0.00280107 0.0284126 -0.0291127
-0.0029253 0.0282999 -0.0293219
-0.00315881 0.028124 -0.0295433
-0.00317117 0.0280758 -0.0297402
-0.00313421 0.0280561 -0.0299317
-0.0125813 0.0279954 -0.00410879
-0.0121419 0.0282019 -0.00428689
-0.0115624 0.0284875 -0.00445835
-0.0111859 0.0286588 -0.00463838
-0.0107959 0.0288377 -0.00481744
-0.0102801 0.0290877 -0.00499033
-0.0100072 0.0292007 -0.00517404
-0.00987557 0.029234 -0.00536414
-0.00946285 0.029426 -0.00554075
-0.00935749 0.0294445 -0.00573175
-0.00932501 0.029422 -0.0059262
-0.0092776 0.0294078 -0.00611992
-0.00920121 0.02941 -0.00631216
-0.00921359 0.0293621 -0.00650879
-0.00909621 0.0293874 -0.0066989
-0.00904159 0.0293774 -0.00689211
-0.0082836 0.029765 -0.00704898
-0.00774263 0.0300301 -0.00721641
-0.00752535 0.0301122 -0.00740036
-0.00728643 0.0302065 -0.00758295
-0.00711675 0.0302617 -0.00776905
-0.0071023 0.0302292 -0.00796339
-0.00698903 0.0302525 -0.00815235
-0.00683898 0.0302967 -0.00833917
-0.00677578 0.0302917 -0.00853071
-0.00675623 0.030262 -0.00872466
-0.00660268 0.0303083 -0.008911
-0.00652781 0.0303099 -0.00910171
-0.00644044 0.0303187 -0.00929165
-0.00635417 0.0303268 -0.00948158
-0.00636895 0.0302777 -0.00967739
-0.00628428 0.0302849 -0.00986733
-0.00618927 0.0302981 -0.0100566
-0.00621318 0.0302438 -0.0102529
-0.00618874 0.0302169 -0.0104464
-0.00610659 0.0302228 -0.0106363
-0.00606491 0.0302056 -0.0108287
-0.00615343 0.0301146 -0.0110291
-0.00609067 0.0301095 -0.0112202
-0.00584347 0.0302091 -0.0113995
-0.00577086 0.0302096 -0.0115898
-0.00570207 0.0302079 -0.0117802
-0.00547671 0.0302952 -0.0119605
-0.00549562 0.0302437 -0.0121565
-0.00521394 0.030363 -0.0123328
-0.00510198 0.030386 -0.01252
-0.00509128 0.0303514 -0.0127139
-0.00498857 0.0303691 -0.0129017
-0.00490767 0.0303744 -0.0130908
-0.00489115 0.030343 -0.0132843
-0.0048112 0.0303478 -0.0134734
-0.00471483 0.030362 -0.0136613
-0.00464936 0.0303585 -0.0138513
-0.00458521 0.0303543 -0.0140413
-0.00459853 0.030306 -0.0142368
-0.00439703 0.0303801 -0.014417
-0.00428876 0.030401 -0.0146037
-0.00548948 0.0295129 -0.0156655
-0.00535943 0.0295462 -0.015851
-0.00533096 0.0295216 -0.016044
-0.00529167 0.0295032 -0.0162361
-0.00486156 0.0297077 -0.0163984
-0.00504566 0.0295619 -0.0166075
-0.00482076 0.0296494 -0.0167852
-0.00473624 0.0296568 -0.0169735
-0.00463515 0.0296737 -0.0171606
-0.00457731 0.029666 -0.0173509
-0.00426435 0.0298039 -0.017521
-0.00404874 0.0298863 -0.0176985
-0.0038861 0.0299385 -0.0178801
-0.00362511 0.0300469 -0.0180536
-0.00357731 0.0300334 -0.0182442
-0.00356436 0.0300001 -0.0184377
-0.00345344 0.0300228 -0.0186231
-0.00335099 0.0300407 -0.0188091
-0.00320605 0.0300828 -0.0189914
-0.00283972 0.0302517 -0.0191551
-0.0026999 0.030291 -0.0193375
-0.00253834 0.0303428 -0.019518
-0.00231949 0.0304274 -0.0196934
-0.00221397 0.0304472 -0.0198784
-0.00211452 0.0304635 -0.0200638
-0.00205617 0.0304563 -0.0202527
-0.00189637 0.0305072 -0.0204327
-0.00183783 0.0305001 -0.0206215
-0.00176851 0.0304992 -0.0208092
-0.00164737 0.030528 -0.0209924
-0.00159362 0.0305181 -0.0211814
-0.00160335 0.0304719 -0.0213762
-0.00157241 0.030449 -0.0215673
-0.0013939 0.0305108 -0.0217449
-0.00126376 0.0305448 -0.0219268
-0.00128039 0.0304947 -0.0221221
-0.00127588 0.0304566 -0.0223155
-0.00116869 0.0304775 -0.0224994
-0.00111736 0.0304663 -0.0226884
-0.00107493 0.0304501 -0.0228782
-0.00102011 0.0304409 -0.0230668
-0.00105118 0.0303824 -0.0232635
-0.000997393 0.0303727 -0.0234523
-0.00104689 0.0303036 -0.0236508
-0.000928776 0.0303308 -0.0238333
-0.000978007 0.0302619 -0.0240319
-0.000978373 0.030221 -0.0242259
-0.000960098 0.0301908 -0.024418
-0.000995649 0.0301297 -0.0246155
-0.000957045 0.0301112 -0.0248056
-0.00104924 0.0300175 -0.0250088
-0.00100174 0.0300041 -0.025198
-0.00111821 0.0298963 -0.0254038
-0.00111909 0.0298551 -0.0255981
-0.00115524 0.0297936 -0.0257959
-0.0012127 0.0297197 -0.025996
-0.00121674 0.0296766 -0.0261906
-0.00130467 0.0295852 -0.026394
-0.00138731 0.0294968 -0.0265969
-0.00126973 0.0295238 -0.0267791
-0.00139472 0.0294109 -0.0269865
-0.00152795 0.0292933 -0.027195
-0.00157485 0.0292254 -0.0273945
-0.001662 0.0291343 -0.0275984
-0.00183479 0.0289937 -0.0278116
-0.00188468 0.028924 -0.0280117
-0.00202704 0.028801 -0.0282219
-0.00211315 0.0287103 -0.0284261
-0.00227384 0.0285766 -0.0286387
-0.00233922 0.0284979 -0.0288409
-0.00251365 0.0283562 -0.0290553
-0.00271736 0.0281975 -0.029273
-0.0028504 0.0280796 -0.0294832
-0.0026975 0.0281269 -0.0296616
-0.00285745 0.0279934 -0.029875
-0.0126726 0.0277597 -0.00388322
-0.0121287 0.0280254 -0.00405711
-0.0116027 0.0282811 -0.00423126
-0.0110742 0.0285382 -0.0044048
-0.010871 0.0286119 -0.00459246
-0.0103247 0.0288793 -0.00476432
-0.00996521 0.0290413 -0.00494424
-0.00946831 0.029281 -0.00511743
-0.00938301 0.0292883 -0.00530949
-0.00931735 0.0292844 -0.00550242
-0.00927929 0.029265 -0.00569663
-0.00926422 0.0292326 -0.00589194
-0.00921153 0.0292214 -0.00608539
-0.00918285 0.0291967 -0.00628002
-0.00917978 0.0291575 -0.00647591
-0.00915181 0.0291323 -0.00667056
-0.00905512 0.0291461 -0.0068617
-0.00893751 0.0291717 -0.00705168
-0.00742872 0.0299848 -0.00716917
-0.00720647 0.0300698 -0.00735275
-0.00699625 0.0301481 -0.00753676
-0.00690523 0.0301589 -0.00772698
-0.0068187 0.0301671 -0.00791737
-0.00675081 0.0301648 -0.0081087
-0.00661094 0.0302033 -0.00829602
-0.00655218 0.0301959 -0.00848773
-0.00639664 0.0302433 -0.00867398
-0.00625342 0.0302838 -0.00886079
-0.00612284 0.0303171 -0.00904818
-0.00600999 0.0303404 -0.0092365
-0.00595332 0.0303318 -0.00942797
-0.00595497 0.0302902 -0.00962285
-0.0059397 0.0302581 -0.00981673
-0.00587718 0.0302529 -0.0100078
-0.00585655 0.0302238 -0.0102014
-0.00572201 0.0302595 -0.010388
-0.0057545 0.0302003 -0.0105848
-0.00560217 0.0302461 -0.0107702
-0.00554876 0.0302358 -0.0109616
-0.00542496 0.0302653 -0.0111485
-0.00540809 0.0302342 -0.0113422
-0.00529066 0.0302603 -0.0115294
-0.0052328 0.0302524 -0.0117204
-0.00502771 0.0303284 -0.0119017
-0.00494262 0.0303361 -0.0120908
-0.00486812 0.0303378 -0.0122804
-0.00490222 0.0302776 -0.0124772
-0.00478593 0.0303031 -0.012664
-0.0045232 0.030412 -0.0128409
-0.00448789 0.0303914 -0.013033
-0.00459954 0.0302871 -0.013235
-0.00450972 0.0302976 -0.0134233
-0.00449725 0.0302639 -0.0136169
-0.0044986 0.0302225 -0.0138115
-0.00436555 0.0302576 -0.0139967
-0.00426881 0.030272 -0.0141843
-0.00424905 0.0302426 -0.0143774
-0.00474632 0.0297553 -0.0153866
-0.00472053 0.0297292 -0.0155795
-0.00462889 0.0297407 -0.0157674
-0.00464902 0.0296884 -0.0159637
-0.0045927 0.0296798 -0.0161543
-0.00450829 0.0296872 -0.0163427
-0.0044947 0.0296542 -0.0165365
-0.00436933 0.029685 -0.0167216
-0.004421 0.0296147 -0.0169204
-0.00424941 0.029672 -0.0171018
-0.00414922 0.0296885 -0.0172886
-0.00404831 0.0297054 -0.0174754
-0.00380175 0.0298056 -0.0176504
-0.00355383 0.0299066 -0.0178251
-0.00351909 0.0298857 -0.0180168
-0.0034514 0.0298837 -0.0182058
-0.00337445 0.029887 -0.0183939
-0.00314063 0.0299801 -0.0185691
-0.0028986 0.030078 -0.0187435
-0.00263521 0.0301881 -0.0189157
-0.00240458 0.0302795 -0.0190906
-0.00236156 0.0302635 -0.019281
-0.00207098 0.0303893 -0.0194504
-0.00203859 0.0303672 -0.0196416
-0.0018615 0.0304281 -0.0198203
-0.00174099 0.0304565 -0.0200037
-0.00164646 0.0304701 -0.0201894
-0.00156548 0.0304759 -0.0203761
-0.00146551 0.0304926 -0.0205611
-0.00142693 0.0304741 -0.0207515
-0.00134132 0.0304826 -0.0209376
-0.00126227 0.0304873 -0.0211243
-0.00121086 0.0304762 -0.0213134
-0.0011557 0.0304673 -0.0215022
-0.00111977 0.0304473 -0.0216926
-0.00104282 0.0304509 -0.0218793
-0.00104529 0.0304089 -0.0220733
-0.000989743 0.0304001 -0.0222619
-0.000961502 0.0303757 -0.022453
-0.000904379 0.0303679 -0.0226414
-0.000816098 0.030378 -0.0228268
-0.000768763 0.0303646 -0.023016
-0.000776635 0.0303195 -0.0232105
-0.0007572 0.03029 -0.0234024
-0.000746913 0.0302553 -0.0235951
-0.000729823 0.0302245 -0.0237873
-0.000705812 0.0301976 -0.0239787
-0.000699524 0.0301606 -0.0241719
-0.000730302 0.0301022 -0.0243687
-0.000734694 0.030059 -0.024563
-0.000708394 0.0300335 -0.0247543
-0.000670343 0.0300147 -0.0249444
-0.000729369 0.02994 -0.0251442
-0.000830565 0.029841 -0.0253484
-0.00086851 0.0297784 -0.0255462
-0.000853592 0.0297463 -0.0257388
-0.000888073 0.0296856 -0.0259364
-0.000989373 0.0295865 -0.0261409
-0.00102507 0.0295251 -0.0263388
-0.00105015 0.0294699 -0.0265356
-0.00108761 0.0294075 -0.0267338
-0.00117421 0.0293167 -0.0269372
-0.00124252 0.0292365 -0.0271388
-0.00133867 0.0291401 -0.0273434
-0.00147177 0.0290224 -0.0275521
-0.00157475 0.0289221 -0.0277577
-0.00162243 0.0288537 -0.0279575
-0.00174969 0.0287393 -0.028166
-0.00187048 0.0286285 -0.0283739
-0.00202824 0.0284964 -0.028586
-0.00200923 0.0284665 -0.0287789
-0.00217112 0.0283319 -0.0289917
-0.00233315 0.0281972 -0.0292048
-0.00248626 0.0280676 -0.029417
-0.00246107 0.0280412 -0.0296095
-0.00263649 0.0278987 -0.0298245
-0.00282481 0.0277486 -0.0300412
-0.00293123 0.0276459 -0.0302488
-0.0130608 0.0273562 -0.00367005
-0.0121401 0.0278349 -0.00382832
-0.0116687 0.02806 -0.00400517
-0.0111332 0.0283213 -0.00417876
-0.0106776 0.0285377 -0.00435538
-0.0102492 0.0287387 -0.00453278
-0.0099946 0.0288416 -0.00471766
-0.00954889 0.0290526 -0.00489354
-0.00926882 0.02917 -0.00507666
-0.00921548 0.0291592 -0.00527017
-0.00919579 0.0291294 -0.00546524
-0.00918602 0.029094 -0.00566078
-0.00917873 0.0290571 -0.00585646
-0.00915637 0.0290288 -0.00605141
-0.00914232 0.0289958 -0.00624677
-0.00918049 0.0289332 -0.00644475
-0.00917153 0.0288973 -0.0066404
-0.00910736 0.0288927 -0.00683325
-0.00903258 0.0288941 -0.00702552
-0.00701277 0.0299976 -0.00711665
-0.00685829 0.0300444 -0.00730364
-0.0066561 0.0301182 -0.00748797
-0.00666373 0.0300731 -0.00768333
-0.00656983 0.0300856 -0.00787325
-0.00637599 0.0301548 -0.00805763
-0.00623508 0.030194 -0.00824477
-0.00604284 0.0302623 -0.00842892
-0.00597927 0.0302577 -0.00862012
-0.00590726 0.0302579 -0.00881078
-0.00594299 0.0301968 -0.00900754
-0.00577122 0.0302537 -0.00919243
-0.0057541 0.0302227 -0.00938613
-0.00564137 0.030246 -0.00957424
-0.00557741 0.0302416 -0.00976514
-0.00561052 0.0301821 -0.00996177
-0.00535278 0.0302878 -0.010141
-0.00512831 0.0303747 -0.010322
-0.00513855 0.0303282 -0.0105171
-0.00500784 0.0303619 -0.0107036
-0.00490567 0.0303793 -0.0108917
-0.0047176 0.0304456 -0.0110744
-0.0046444 0.0304466 -0.0112642
-0.00445988 0.0305109 -0.0114468
-0.00451581 0.0304384 -0.0116447
-0.00425725 0.030545 -0.0118223
-0.00408721 0.0306012 -0.0120054
-0.0040628 0.0305744 -0.012198
-0.00401322 0.030562 -0.0123889
-0.00402307 0.0305158 -0.0125837
-0.00408056 0.0304424 -0.0127818
-0.00393876 0.0304825 -0.0129664
-0.00398653 0.0304147 -0.0131638
-0.00400701 0.0303623 -0.0133595
-0.00407264 0.0302842 -0.0135583
-0.00405766 0.0302521 -0.0137516
-0.00409334 0.0301911 -0.0139484
-0.00407278 0.0301621 -0.0141413
-0.00397848 0.0301752 -0.014329
-0.00390821 0.0301746 -0.0145183
-0.00362788 0.0302939 -0.0146925
-0.00429747 0.0297487 -0.0155192
-0.00422067 0.0297518 -0.0157081
-0.00428628 0.0296735 -0.0159077
-0.00415736 0.0297064 -0.0160926
-0.00419066 0.0296466 -0.0162898
-0.00413179 0.0296395 -0.0164799
-0.00408916 0.0296231 -0.0166713
-0.0039706 0.0296502 -0.0168568
-0.00386236 0.0296713 -0.017043
-0.00385205 0.0296364 -0.0172368
-0.00360556 0.0297367 -0.0174118
-0.00344782 0.0297863 -0.0175938
-0.00337359 0.029788 -0.0177823
-0.00326533 0.0298093 -0.017968
-0.00308061 0.0298743 -0.0181474
-0.00278617 0.0300023 -0.0183176
-0.00241633 0.0301735 -0.0184814
-0.00229733 0.0302011 -0.0186656
-0.00216808 0.0302345 -0.0188488
-0.00195093 0.0303183 -0.0190246
-0.00188993 0.0303126 -0.0192133
-0.00181563 0.0303146 -0.0194009
-0.00167543 0.0303544 -0.0195828
-0.00157614 0.0303707 -0.019768
-0.00144745 0.030404 -0.0199507
-0.00136851 0.0304086 -0.0201376
-0.00134044 0.0303841 -0.0203288
-0.00124769 0.0303968 -0.0205144
-0.00125735 0.0303506 -0.020709
-0.00109832 0.0304013 -0.0208885
-0.0010526 0.030387 -0.0210781
-0.000931029 0.0304162 -0.0212609
-0.000833938 0.0304314 -0.0214457
-0.000889602 0.0303588 -0.0216444
-0.000688952 0.0304335 -0.0218197
-0.000700468 0.0303863 -0.0220143
-0.000759298 0.0303118 -0.0222134
-0.000607132 0.0303587 -0.0223929
-0.00060495 0.0303194 -0.0225863
-0.00055182 0.0303093 -0.0227749
-0.000476116 0.0303123 -0.0229614
-0.000543045 0.0302332 -0.0231614
-0.00058664 0.0301674 -0.0233592
-0.000516736 0.030167 -0.0235462
-0.000475617 0.03015 -0.0237359
-0.000481079 0.0301062 -0.0239301
-0.000446388 0.0300856 -0.0241205
-0.000573694 0.0299715 -0.0243267
-0.000480449 0.0299846 -0.0245113
-0.000484383 0.0299417 -0.0247055
-0.000485715 0.0299002 -0.0248995
-0.000550731 0.0298221 -0.0250998
-0.000580594 0.0297641 -0.0252967
-0.000611567 0.0297055 -0.0254938
-0.000628649 0.0296549 -0.0256895
-0.000667552 0.0295918 -0.0258875
-0.000753492 0.0295014 -0.0260903
-0.000756222 0.0294591 -0.0262847
-0.000917342 0.0293253 -0.0264956
-0.000877848 0.0293073 -0.0266857
-0.000935933 0.0292329 -0.0268861
-0.00104024 0.0291319 -0.0270914
-0.00112593 0.0290415 -0.0272948
-0.00116474 0.0289783 -0.0274934
-0.00129266 0.0288634 -0.0277015
-0.00132563 0.0288035 -0.0278997
-0.00138697 0.0287271 -0.0281009
-0.00153459 0.0286009 -0.0283116
-0.00159965 0.0285223 -0.0285134
-0.00168448 0.0284323 -0.0287175
-0.00191917 0.0282555 -0.0289382
-0.00199273 0.0281719 -0.0291414
-0.00213878 0.0280464 -0.0293527
-0.00219031 0.0279755 -0.0295536
-0.00235639 0.0278383 -0.0297675
-0.00257918 0.0276681 -0.0299879
-0.00248637 0.0276809 -0.0301729
-0.012333 0.0275417 -0.00360711
-0.0119142 0.0277372 -0.00378662
-0.0111906 0.0281052 -0.00395252
-0.0108743 0.028243 -0.00413555
-0.0103369 0.0285058 -0.00430849
-0.00986756 0.0287303 -0.00448397
-0.00943893 0.0289318 -0.00466083
-0.0091611 0.0290481 -0.00484419
-0.00913124 0.0290241 -0.00503878
-0.00913519 0.0289808 -0.00523495
-0.00908066 0.0289708 -0.00542836
-0.0091146 0.0289106 -0.00562599
-0.00915498 0.0288467 -0.00582397
-0.00911127 0.0288305 -0.00601791
-0.00912219 0.0287834 -0.00621452
-0.00912157 0.0287427 -0.0064106
-0.00912431 0.0287002 -0.00660685
-0.00913284 0.0286543 -0.00680342
-0.00677354 0.0299106 -0.00707336
-0.00665533 0.0299368 -0.00726218
-0.00649479 0.0299872 -0.00744867
-0.00635093 0.0300281 -0.0076359
-0.00625798 0.0300401 -0.00782576
-0.00608431 0.0300979 -0.00801114
-0.00579617 0.0302208 -0.00819008
-0.00582883 0.0301616 -0.00838654
-0.00566687 0.0302129 -0.00857217
-0.00561045 0.0302042 -0.00876362
-0.00551827 0.0302159 -0.00895297
-0.00551813 0.0301752 -0.00914756
-0.00540724 0.0301976 -0.00933574
-0.00529235 0.0302222 -0.0095236
-0.00518932 0.0302401 -0.00971206
-0.00499198 0.0303117 -0.00989483
-0.00477197 0.0303961 -0.0100761
-0.00474312 0.0303719 -0.0102686
-0.00460167 0.0304117 -0.0104544
-0.0045035 0.030427 -0.0106426
-0.00435863 0.0304688 -0.0108279
-0.00419587 0.0305209 -0.0110119
-0.00407807 0.0305473 -0.0111987
-0.00407063 0.0305109 -0.0113923
-0.00399711 0.0305122 -0.0115817
-0.00393227 0.0305085 -0.0117717
-0.00382696 0.0305279 -0.0119589
-0.0037835 0.0305121 -0.0121501
-0.00377769 0.0304747 -0.0123438
-0.00381823 0.030411 -0.0125406
-0.00356885 0.0305126 -0.012718
-0.00355047 0.0304824 -0.0129108
-0.00349515 0.0304734 -0.0131011
-0.00350691 0.030426 -0.0132959
-0.0034528 0.0304163 -0.0134862
-0.00341207 0.0303989 -0.0136774
-0.0034092 0.0303599 -0.0138713
-0.00343281 0.0303058 -0.014067
-0.00343845 0.0302619 -0.0142615
-0.00341435 0.030235 -0.0144539
-0.00331242 0.0302526 -0.0146407
-0.00347055 0.0301216 -0.0148463
-0.00354438 0.0300387 -0.0150459
-0.00367608 0.0299227 -0.0152499
-0.00362201 0.0299129 -0.0154402
-0.00367266 0.0298432 -0.0156384
-0.00367251 0.0298026 -0.0158327
-0.00362561 0.0297887 -0.0160236
-0.00366241 0.0297269 -0.0162208
-0.00364144 0.0296981 -0.0164137
-0.0035476 0.0297111 -0.0166009
-0.00360174 0.0296393 -0.0167996
-0.0035623 0.0296212 -0.016991
-0.00340126 0.0296726 -0.0171728
-0.00325131 0.0297178 -0.0173553
-0.00311359 0.029756 -0.0175388
-0.00298312 0.02979 -0.0177226
-0.00269015 0.0299172 -0.0178933
-0.00257456 0.0299428 -0.018078
-0.00222312 0.0301037 -0.0182434
-0.00210804 0.030129 -0.0184279
-0.00197202 0.0301664 -0.0186106
-0.0018093 0.0302191 -0.0187909
-0.00164227 0.0302743 -0.0189708
-0.00158713 0.0302653 -0.0191599
-0.00148559 0.030283 -0.0193451
-0.00141146 0.0302849 -0.0195325
-0.00135862 0.0302747 -0.0197216
-0.00127601 0.0302815 -0.0199082
-0.0011044 0.0303395 -0.020087
-0.00100112 0.0303582 -0.0202716
-0.000958506 0.0303421 -0.0204615
-0.000927329 0.0303194 -0.0206523
-0.000812776 0.0303447 -0.0208357
-0.000751465 0.0303393 -0.0210238
-0.000729243 0.0303115 -0.0212154
-0.000655903 0.0303131 -0.0214023
-0.000642002 0.0302805 -0.0215946
-0.000430705 0.0303614 -0.0217689
-0.000440879 0.030315 -0.0219633
-0.000389649 0.0303039 -0.0221521
-0.000356373 0.0302824 -0.0223425
-0.000286969 0.0302818 -0.0225295
-0.000303083 0.0302319 -0.0227245
-0.000264748 0.0302134 -0.0229145
-0.000323063 0.0301391 -0.0231135
-0.000207742 0.030165 -0.0232961
-0.000264504 0.0300916 -0.0234951
-0.000210597 0.0300821 -0.0236835
-0.000266462 0.0300092 -0.0238825
-0.000237097 0.0299855 -0.0240733
-0.000204728 0.0299635 -0.0242638
-0.000234639 0.0299056 -0.0244605
-0.000181817 0.0298954 -0.0246489
-0.000234571 0.0298243 -0.0248479
-0.000284978 0.0297545 -0.0250467
-0.000332263 0.0296865 -0.0252452
-0.000382428 0.0296168 -0.0254442
-0.000417445 0.0295559 -0.0256416
-0.000398795 0.0295259 -0.0258337
-0.000397337 0.029486 -0.0260275
-0.000485713 0.0293942 -0.0262306
-0.000627475 0.0292715 -0.0264393
-0.000583194 0.0292563 -0.0266288
-0.000680134 0.0291595 -0.0268331
-0.000801015 0.0290487 -0.0270401
-0.000839661 0.0289856 -0.0272384
-0.000869647 0.0289274 -0.027436
-0.000986986 0.0288186 -0.0276429
-0.00104131 0.0287463 -0.0278432
-0.00106754 0.0286903 -0.0280405
-0.00131142 0.0285082 -0.0282614
-0.00125357 0.0285008 -0.0284499
-0.00152305 0.0283037 -0.028674
-0.00165649 0.0281855 -0.0288835
-0.00170059 0.028119 -0.0290834
-0.00177091 0.0280372 -0.0292861
-0.00196933 0.0278812 -0.0295033
-0.0020574 0.0277891 -0.0297083
-0.0021763 0.0276791 -0.0299169
-0.00224719 0.0275969 -0.0301203
-0.0116582 0.027698 -0.00354652
-0.0113528 0.0278296 -0.00373061
-0.0107695 0.0281187 -0.00390238
-0.0103896 0.0282926 -0.0040825
-0.0100266 0.028457 -0.00426299
-0.00954395 0.0286893 -0.00443779
-0.00914085 0.0288767 -0.00461572
-0.00896443 0.0289357 -0.00480364
-0.00900346 0.0288726 -0.00500136
-0.00903184 0.0288155 -0.00519864
-0.00897226 0.0288084 -0.00539182
-0.0090299 0.0287347 -0.00559056
-0.00903936 0.0286884 -0.00578705
-0.00905463 0.0286387 -0.00598385
-0.00909997 0.0285719 -0.00618217
-0.00915605 0.0284992 -0.00638108
-0.00913185 0.0284719 -0.00657604
-0.00647231 0.0298589 -0.00702688
-0.00619167 0.0299775 -0.00720711
-0.00613052 0.0299715 -0.00739866
-0.00603058 0.0299875 -0.00758811
-0.00587919 0.0300328 -0.00777469
-0.00562571 0.0301362 -0.00795561
-0.00560578 0.0301068 -0.00814909
-0.00550744 0.030122 -0.00833825
-0.00546713 0.0301042 -0.00853056
-0.00539135 0.0301066 -0.00872085
-0.00534825 0.0300904 -0.00891294
-0.00513772 0.0301695 -0.00909541
-0.00502566 0.0301926 -0.00928338
-0.00481645 0.030271 -0.00946559
-0.00484163 0.0302159 -0.00966141
-0.00463823 0.0302911 -0.00984371
-0.00445139 0.0303568 -0.0100268
-0.00437348 0.0303606 -0.0102163
-0.00420162 0.0304178 -0.0104
-0.0040797 0.0304467 -0.0105867
-0.00393799 0.0304868 -0.010772
-0.00395187 0.0304383 -0.0109669
-0.00385006 0.0304557 -0.0111546
-0.00360547 0.0305545 -0.0113331
-0.00358371 0.0305263 -0.0115256
-0.00349442 0.0305367 -0.0117138
-0.00354976 0.0304645 -0.0119113
-0.00340455 0.0305067 -0.0120958
-0.00340603 0.0304653 -0.0122898
-0.00325098 0.0305132 -0.0124734
-0.00322255 0.0304888 -0.0126654
-0.00305588 0.0305434 -0.0128481
-0.0030922 0.0304821 -0.0130444
-0.00300506 0.0304912 -0.0132323
-0.00302819 0.0304374 -0.0134277
-0.00299347 0.0304167 -0.0136192
-0.00302799 0.0303563 -0.0138154
-0.00296526 0.0303516 -0.0140049
-0.00308112 0.0302447 -0.0142071
-0.00286718 0.0303264 -0.0143858
-0.0031211 0.0301405 -0.014598
-0.00299191 0.0301738 -0.0147826
-0.00308868 0.0300777 -0.0149837
-0.00320593 0.02997 -0.0151864
-0.0033315 0.0298574 -0.0153899
-0.00325959 0.0298579 -0.0155788
-0.00331836 0.0297835 -0.0157774
-0.0033738 0.029711 -0.0159759
-0.00326695 0.0297315 -0.016162
-0.00331082 0.0296656 -0.0163597
-0.00318549 0.0296967 -0.0165444
-0.00325056 0.0296187 -0.0167438
-0.00310867 0.0296593 -0.016927
-0.00294559 0.0297121 -0.0171085
-0.00289668 0.0296994 -0.0172989
-0.00265711 0.0297961 -0.017474
-0.0024634 0.0298665 -0.0176527
-0.00229773 0.0299209 -0.0178334
-0.00199027 0.0300567 -0.0180024
-0.00192307 0.0300546 -0.0181908
-0.00187113 0.0300438 -0.0183804
-0.00165068 0.0301297 -0.018556
-0.00157603 0.030132 -0.0187436
-0.00143549 0.0301721 -0.0189256
-0.00138848 0.0301585 -0.0191153
-0.00126558 0.0301885 -0.0192986
-0.00115298 0.0302126 -0.0194826
-0.00103141 0.0302418 -0.0196658
-0.000946502 0.0302501 -0.0198521
-0.000919388 0.030225 -0.0200433
-0.000730617 0.030293 -0.0202204
-0.000694648 0.0302731 -0.0204108
-0.000613622 0.0302791 -0.0205971
-0.000522424 0.030291 -0.0207825
-0.000541148 0.0302396 -0.0209776
-0.000413883 0.0302723 -0.0211597
-0.000397133 0.0302413 -0.0213516
-0.000274482 0.0302714 -0.0215339
-0.000237638 0.030252 -0.021724
-0.000181566 0.0302437 -0.0219123
-0.000164101 0.0302132 -0.0221041
-0.000116317 0.0302002 -0.0222931
-7.64198e-05 0.0301825 -0.0224828
-0.000102018 0.0301272 -0.0226787
-2.43481e-05 0.0301314 -0.0228648
-0.000102883 0.0300454 -0.0230657
-2.33856e-05 0.0300506 -0.0232516
4.73647e-05 0.0300509 -0.0234384
6.03741e-05 0.0300177 -0.0236306
0.000101071 0.0300006 -0.0238201
7.51223e-05 0.0299449 -0.0240162
2.99244e-05 0.0298782 -0.0242142
7.58789e-05 0.0298641 -0.0244032
2.71525e-05 0.0297953 -0.0246016
-2.70511e-05 0.0297233 -0.0248007
-8.87874e-05 0.029647 -0.0250005
-0.000168102 0.0295604 -0.0252023
-0.000142241 0.0295347 -0.0253935
-0.000186848 0.0294681 -0.0255918
-0.000212204 0.0294128 -0.0257883
-0.000163294 0.0294003 -0.0259771
-0.000197723 0.0293397 -0.0261746
-0.000313251 0.029232 -0.0263805
-0.000404959 0.0291382 -0.0265841
-0.000396944 0.0291021 -0.0267773
-0.000491914 0.0290063 -0.0269814
-0.000505385 0.0289577 -0.027177
-0.000681562 0.0288148 -0.0273899
-0.000610252 0.0288153 -0.0275766
-0.000762236 0.0286864 -0.0277872
-0.000803701 0.0286215 -0.0279861
-0.000906427 0.0285211 -0.0281917
-0.00108593 0.0283761 -0.0284058
-0.00119916 0.0282695 -0.0286128
-0.00135437 0.0281386 -0.0288245
-0.00134799 0.0281013 -0.0290187
-0.00155088 0.0279426 -0.029236
-0.00167863 0.0278275 -0.0294452
-0.00198974 0.0276059 -0.0296751
-0.00190816 0.0276122 -0.0298612
-0.00206139 0.0274822 -0.0300737
-0.012067 0.0272825 -0.00333433
-0.0113021 0.0276744 -0.00349946
-0.0108191 0.0279069 -0.00367585
-0.0103641 0.0281236 -0.00385299
-0.00991178 0.0283388 -0.00402981
-0.00950033 0.028531 -0.00420799
-0.00906934 0.0287343 -0.00438491
-0.00890261 0.0287879 -0.00457336
-0.00883802 0.0287835 -0.00476631
-0.00883368 0.028745 -0.00496201
-0.00885055 0.0286945 -0.0051587
-0.00888414 0.0286345 -0.00535623
-0.00893964 0.028562 -0.00555486
-0.00895728 0.028511 -0.00575174
-0.00908113 0.0283996 -0.00595382
-0.00905242 0.0283749 -0.00614855
-0.00910167 0.0283059 -0.00634715
-0.00621427 0.0298237 -0.00678788
-0.00611149 0.0298413 -0.00697736
-0.00599572 0.0298664 -0.00716607
-0.00579425 0.0299402 -0.00735017
-0.00569316 0.029957 -0.00753943
-0.00554144 0.0300026 -0.00772589
-0.00541685 0.0300327 -0.00791369
-0.00532215 0.0300459 -0.00810302
-0.00527124 0.0300342 -0.00829469
-0.00527605 0.0299907 -0.00848944
-0.00508455 0.030059 -0.00867318
-0.00485503 0.0301491 -0.00885458
-0.00475485 0.0301654 -0.00904317
-0.00446769 0.0302884 -0.00922089
-0.00448151 0.0302399 -0.00941586
-0.00432584 0.0302879 -0.00960092
-0.00420056 0.0303187 -0.00978764
-0.00417626 0.0302919 -0.0099803
-0.0038868 0.0304163 -0.0101569
-0.00383337 0.0304062 -0.0103477
-0.0037047 0.0304389 -0.0105338
-0.00365016 0.0304294 -0.0107244
-0.00357081 0.0304341 -0.0109133
-0.00335117 0.0305188 -0.0110934
-0.00328197 0.0305178 -0.0112829
-0.00317417 0.0305387 -0.0114698
-0.00315108 0.0305113 -0.0116621
-0.0031265 0.0304848 -0.0118543
-0.00302063 0.0305046 -0.0120412
-0.00290188 0.0305319 -0.0122271
-0.00279776 0.0305508 -0.0124139
-0.0027915 0.0305139 -0.0126072
-0.0026565 0.0305504 -0.0127918
-0.0027132 0.0304774 -0.0129893
-0.00267869 0.0304566 -0.0131807
-0.00264519 0.0304351 -0.0133721
-0.00263336 0.0304014 -0.013565
-0.00258176 0.0303903 -0.0137551
-0.00261895 0.0303284 -0.0139515
-0.00265887 0.0302649 -0.0141481
-0.00251569 0.0303063 -0.0143317
-0.00272053 0.0301484 -0.0145402
-0.00247731 0.030247 -0.0147164
-0.00265293 0.0301058 -0.014923
-0.00274727 0.0300111 -0.0151239
-0.00287506 0.0298972 -0.0153273
-0.00292336 0.0298289 -0.0155249
-0.00272994 0.029899 -0.0157045
-0.0028866 0.0297686 -0.0159104
-0.00276591 0.0297971 -0.0160953
-0.00274315 0.0297694 -0.0162877
-0.0027346 0.0297337 -0.0164811
-0.00261996 0.0297587 -0.0166663
-0.0024185 0.0298336 -0.0168447
-0.00238722 0.0298109 -0.0170362
-0.00232273 0.0298073 -0.0172251
-0.00225251 0.0298069 -0.0174135
-0.00205207 0.0298813 -0.0175914
-0.00185321 0.0299549 -0.0177693
-0.00171609 0.029993 -0.017952
-0.00159406 0.0300225 -0.0181359
-0.00146382 0.0300567 -0.0183189
-0.00132319 0.0300969 -0.018501
-0.0012518 0.0300973 -0.0186887
-0.00119631 0.0300886 -0.0188776
-0.00107726 0.0301165 -0.0190612
-0.00106456 0.0300831 -0.0192538
-0.000728999 0.0302356 -0.0194188
-0.000745038 0.0301858 -0.0196136
-0.000657812 0.0301954 -0.0197995
-0.000574962 0.0302025 -0.0199858
-0.000500038 0.030205 -0.0201727
-0.000438183 0.0302001 -0.0203607
-0.000374642 0.0301961 -0.0205485
-0.000346318 0.0301718 -0.0207394
-0.000263777 0.0301787 -0.0209255
-0.000203304 0.030173 -0.0211134
-0.000132203 0.0301734 -0.0213004
-7.51929e-05 0.0301657 -0.0214886
1.91332e-05 0.0301794 -0.0216733
-6.27143e-06 0.0301242 -0.021869
5.16176e-05 0.030117 -0.0220571
5.03058e-05 0.0300756 -0.0222505
0.000117879 0.030074 -0.0224376
0.000135223 0.0300434 -0.0226294
0.000176052 0.0300264 -0.0228189
0.000179171 0.0299876 -0.023012
0.000262875 0.0299953 -0.0231975
0.000209273 0.0299237 -0.023396
0.000230819 0.0298956 -0.0235874
0.000263709 0.0298739 -0.0237777
0.000263441 0.0298331 -0.0239711
0.000248211 0.0297837 -0.0241661
0.00028764 0.0297658 -0.0243558
0.000254087 0.0297057 -0.0245526
0.000156462 0.0296086 -0.0247559
0.000169518 0.0295755 -0.0249482
0.000149541 0.0295232 -0.0251439
1.73728e-05 0.029406 -0.0253509
8.07993e-05 0.029402 -0.0255382
0.000108055 0.0293771 -0.0257292
-2.15447e-05 0.0292613 -0.0259363
-2.69351e-05 0.0292174 -0.0261307
-6.85737e-05 0.0291526 -0.0263289
-0.000118877 0.0290827 -0.0265281
-0.000147598 0.0290253 -0.0267251
-0.000213444 0.0289463 -0.026926
-0.000336924 0.0288339 -0.0271331
-0.00034876 0.0287863 -0.0273286
-0.000398086 0.0287168 -0.027528
-0.000436702 0.0286536 -0.0277264
-0.000556943 0.028543 -0.0279336
-0.000730008 0.0284017 -0.0281467
-0.00080811 0.0283155 -0.0283497
-0.000888937 0.0282277 -0.0285531
-0.00117366 0.0280214 -0.0287789
-0.00113317 0.028004 -0.0289692
-0.00135519 0.0278341 -0.0291886
-0.00146474 0.0277294 -0.0293957
-0.00164422 0.0275842 -0.0296108
-0.0017536 0.0274796 -0.0298182
-0.0018482 0.0273835 -0.0300241
-0.00198918 0.0272605 -0.0302353
-0.0121753 0.0270368 -0.00310925
-0.011565 0.0273415 -0.00328132
-0.0108581 0.027701 -0.00344874
-0.0106181 0.027796 -0.00363533
-0.0100852 0.0280571 -0.0038091
-0.00954049 0.028325 -0.00398182
-0.00927852 0.0284326 -0.00416648
-0.00887165 0.0286225 -0.00434445
-0.00876803 0.0286404 -0.00453569
-0.00866016 0.0286606 -0.00472665
-0.00871739 0.0285872 -0.00492513
-0.00877928 0.0284291 -0.00551582
-0.00892081 0.0283077 -0.00571862
-0.0090442 0.0281965 -0.0059207
-0.00905682 0.0281483 -0.00611748
-0.00616009 0.0296727 -0.00655943
-0.00604166 0.0296993 -0.00674816
-0.00588609 0.0297471 -0.00693487
-0.00571212 0.0298053 -0.00712049
-0.00553202 0.0298671 -0.00730563
-0.00543727 0.0298803 -0.00749514
-0.00533761 0.0298963 -0.00768432
-0.00528593 0.0298851 -0.00787602
-0.00509171 0.029955 -0.00805988
-0.00489806 0.0300246 -0.00824361
-0.00476711 0.0300585 -0.00843065
-0.00454743 0.0301431 -0.00861259
-0.0045249 0.0301153 -0.00880552
-0.00447024 0.0301057 -0.0089966
-0.0042502 0.0301905 -0.00917811
-0.00415887 0.030202 -0.00936689
-0.00411142 0.0301884 -0.0095582
-0.00390113 0.0302678 -0.00973982
-0.00374295 0.0303174 -0.00992436
-0.00369039 0.0303068 -0.0101151
-0.00352452 0.0303609 -0.010299
-0.00345418 0.0303604 -0.0104886
-0.00319761 0.0304664 -0.0106666
-0.00307575 0.0304954 -0.0108527
-0.00313633 0.0304202 -0.0110502
-0.00294737 0.0304876 -0.011232
-0.00283723 0.03051 -0.0114187
-0.00280785 0.0304862 -0.0116104
-0.0027596 0.0304732 -0.011801
-0.00258817 0.0305306 -0.0119834
-0.00261728 0.0304735 -0.0121789
-0.00247726 0.0305129 -0.0123633
-0.0024052 0.0305136 -0.012552
-0.00241137 0.0304695 -0.012746
-0.00244106 0.030412 -0.0129416
-0.00225947 0.0304753 -0.0131228
-0.00231061 0.0304055 -0.0133199
-0.00215637 0.0304533 -0.0135027
-0.00211221 0.030438 -0.0136932
-0.00216337 0.0303681 -0.0138903
-0.00215327 0.0303333 -0.0140832
-0.00216905 0.0302837 -0.0142779
-0.00221114 0.030219 -0.0144746
-0.00223646 0.0301638 -0.0146701
-0.00222346 0.0301307 -0.0148628
-0.00211702 0.0301511 -0.0150488
-0.00224054 0.0300397 -0.0152516
-0.0021976 0.0300236 -0.0154421
-0.0020783 0.0300515 -0.015627
-0.00218697 0.0299485 -0.0158289
-0.00216017 0.0299232 -0.0160207
-0.00221361 0.0298519 -0.0162186
-0.0022796 0.0297733 -0.0164175
-0.00222891 0.0297618 -0.0166075
-0.00208221 0.0298054 -0.01679
-0.00207709 0.0297676 -0.0169835
-0.00199148 0.0297761 -0.0171706
-0.00184884 0.0298175 -0.0173531
-0.00172587 0.0298475 -0.0175371
-0.00155309 0.0299062 -0.017717
-0.00142718 0.029938 -0.0179005
-0.00128451 0.0299794 -0.0180825
-0.00110435 0.0300424 -0.0182613
-0.00109225 0.0300088 -0.0184539
-0.000997402 0.0300228 -0.0186396
-0.000931466 0.0300201 -0.0188276
-0.000820281 0.0300435 -0.0190118
-0.000603902 0.0301275 -0.019187
-0.000474812 0.0301612 -0.0193694
-0.000477217 0.0301193 -0.019563
-0.000414192 0.030115 -0.0197509
-0.000341369 0.0301163 -0.019938
-0.000234111 0.0301376 -0.020122
-0.000161897 0.0301386 -0.020309
-0.000156675 0.030101 -0.0205018
-3.07718e-05 0.0301331 -0.020684
5.62042e-05 0.0301426 -0.0208695
5.07097e-05 0.0300989 -0.0210633
0.000131909 0.0301052 -0.0212493
0.00016336 0.0300827 -0.0214397
0.000204608 0.0300659 -0.0216292
0.00021312 0.0300302 -0.0218217
0.000225775 0.029997 -0.0220139
0.00031567 0.0300083 -0.0221989
0.000402477 0.0300178 -0.0223841
0.000337155 0.0299395 -0.0225835
0.000386542 0.0299274 -0.0227721
0.000441895 0.0299188 -0.0229602
0.000427421 0.0298698 -0.0231549
0.000482458 0.029861 -0.023343
0.000445775 0.0297992 -0.0235399
0.000483337 0.0297803 -0.0237296
0.000509337 0.0297547 -0.0239205
0.00046507 0.0296884 -0.0241183
0.000449188 0.0296386 -0.0243133
0.000442277 0.0295939 -0.0245074
0.000385638 0.0295204 -0.0247066
0.000396374 0.029486 -0.024899
0.000341578 0.0294136 -0.0250981
0.000332143 0.0293674 -0.0252927
0.000282694 0.029298 -0.0254914
0.000267362 0.0292484 -0.0256866
0.000239247 0.0291914 -0.0258833
0.000217673 0.0291382 -0.0260793
7.21965e-05 0.0290131 -0.0262881
6.53629e-05 0.0289683 -0.0264827
8.45396e-06 0.0288945 -0.0266826
-6.50298e-06 0.0288451 -0.0268782
-4.39385e-05 0.0287825 -0.0270761
-5.6061e-05 0.0287347 -0.0272715
-0.000280489 0.0285636 -0.0274895
-0.000253398 0.0285385 -0.0276808
-0.00034888 0.0284422 -0.0278853
-0.000519 0.0283025 -0.028098
-0.00056049 0.0282375 -0.0282969
-0.000672338 0.0281317 -0.0285036
-0.00072445 0.0280604 -0.0287039
-0.000927646 0.0279014 -0.0289208
-0.00100945 0.0278129 -0.0291246
-0.00121949 0.0276498 -0.0293427
-0.001333 0.0275427 -0.0295503
-0.00127282 0.0275367 -0.0297386
-0.00187322 0.0270642 -0.0303919
-0.00192799 0.0269912 -0.0305936
-0.0124736 0.0266832 -0.00289165
-0.0116246 0.0271236 -0.00305447
-0.0111175 0.02737 -0.00323064
-0.0105569 0.027647 -0.00340407
-0.0102024 0.0278071 -0.00358572
-0.00962854 0.0280918 -0.00375759
-0.00927638 0.0282507 -0.00393855
-0.00894437 0.0283983 -0.00412005
-0.00866461 0.0285162 -0.00430358
-0.00842989 0.0286086 -0.00448886
-0.00840403 0.0285823 -0.00468344
-0.00827473 0.0286148 -0.00487325
-0.00736102 0.0290933 -0.00502646
-0.00887531 0.0281094 -0.00568507
-0.00895014 0.0280258 -0.0058848
-0.00605027 0.0295533 -0.00632818
-0.00595561 0.0295665 -0.00651815
-0.0056394 0.0297058 -0.00669672
-0.00557219 0.0297033 -0.00688784
-0.00542103 0.0297487 -0.00707455
-0.00537289 0.0297354 -0.00726653
-0.00515968 0.0298162 -0.00744973
-0.00501841 0.029856 -0.00763658
-0.00485542 0.0299082 -0.00782214
-0.00469026 0.0299617 -0.00800744
-0.00450795 0.030025 -0.00819163
-0.00447642 0.0300023 -0.00838407
-0.00427351 0.0300774 -0.00856686
-0.0042429 0.0300542 -0.00875923
-0.00416694 0.0300569 -0.008949
-0.00399425 0.0301149 -0.00913314
-0.00378308 0.0301948 -0.00931488
-0.00367459 0.0302161 -0.00950245
-0.00364945 0.0301898 -0.00969488
-0.00340715 0.0302876 -0.00987432
-0.00331101 0.030302 -0.0100623
-0.00306269 0.0304033 -0.0102411
-0.00298012 0.0304099 -0.0104297
-0.00283337 0.0304532 -0.0106143
-0.00283295 0.0304129 -0.0108079
-0.00262504 0.0304912 -0.0109885
-0.0026323 0.0304465 -0.0111825
-0.00250256 0.0304802 -0.0113678
-0.00253408 0.0304216 -0.0115633
-0.00237265 0.0304734 -0.0117464
-0.00228823 0.0304812 -0.0119344
-0.00221601 0.030482 -0.0121231
-0.00212427 0.030494 -0.0123105
-0.00206429 0.0304878 -0.0124999
-0.00205134 0.0304546 -0.0126925
-0.00191596 0.0304917 -0.0128767
-0.00181826 0.0305071 -0.0130635
-0.00181874 0.0304663 -0.0132568
-0.00184652 0.0304099 -0.0134522
-0.00181345 0.0303882 -0.0136433
-0.00174793 0.0303853 -0.0138321
-0.001819 0.0303039 -0.0140305
-0.00176481 0.0302944 -0.0142201
-0.00176127 0.0302559 -0.0144134
-0.00178351 0.0302026 -0.0146084
-0.00185493 0.030121 -0.0148072
-0.0019342 0.0300349 -0.0150065
-0.00177965 0.030083 -0.0151888
-0.00201814 0.0299054 -0.0154001
-0.00183578 0.0299695 -0.0155802
-0.00182396 0.0299357 -0.0157729
-0.00179265 0.0299131 -0.0159642
-0.00186977 0.0298281 -0.0161638
-0.00184292 0.0298029 -0.0163554
-0.00177877 0.0297991 -0.0165442
