-0.0529217 0.0688604 -0.127019
-0.0530994 0.0697544 -0.128201
-0.053279 0.0705013 -0.129194
-0.0534754 0.0704585 -0.129175
-0.0536708 0.0704551 -0.129205
-0.0538668 0.0704311 -0.12921
-0.0540608 0.070484 -0.129313
-0.0142198 0.0196251 -0.0571428
-0.014451 0.0195581 -0.0570977
-0.0163485 0.0219714 -0.0605359
-0.0166252 0.0223976 -0.0611328
-0.0168914 0.0227214 -0.0615962
-0.0172044 0.0235475 -0.0627134
-0.0174641 0.0238159 -0.0631043
-0.0177578 0.0244565 -0.0639797
-0.0180173 0.0247342 -0.0643828
-0.0182713 0.0249571 -0.0647144
-0.0185113 0.025029 -0.0648495
-0.0187519 0.0251086 -0.0649946
-0.0189876 0.0251354 -0.065071
-0.0192254 0.025187 -0.0651796
-0.019456 0.0251564 -0.0651814
-0.0196886 0.0251501 -0.0652147
-0.0199205 0.0251353 -0.065237
-0.0201564 0.0251678 -0.0653209
-0.020389 0.0251624 -0.0653553
-0.0206212 0.0251529 -0.0653845
-0.0208544 0.0251548 -0.0654285
-0.021087 0.0251508 -0.0654648
-0.0213214 0.025169 -0.06553
-0.021555 0.0251785 -0.0655839
-0.0217878 0.0251777 -0.0656243
-0.0220194 0.0251635 -0.0656473
-0.0222541 0.0251883 -0.0657212
-0.0224825 0.0251321 -0.0656897
-0.0227165 0.0251502 -0.0657547
-0.0229451 0.025096 -0.0657258
-0.0231757 0.0250699 -0.0657334
-0.0234049 0.0250242 -0.0657156
-0.0236356 0.0249977 -0.0657228
-0.0238641 0.0249419 -0.0656919
-0.0240938 0.0249022 -0.0656819
-0.0243221 0.0248432 -0.0656468
-0.0245519 0.0248039 -0.0656374
-0.0247826 0.0247766 -0.0656435
-0.0250126 0.0247407 -0.0656384
-0.025244 0.0247236 -0.0656578
-0.0254747 0.0246972 -0.0656651
-0.025706 0.0246779 -0.0656817
-0.0259374 0.0246622 -0.0657027
-0.0261693 0.024654 -0.0657338
-0.0263999 0.0246264 -0.0657395
-0.0266621 0.0250873 -0.0663785
-0.0269246 0.025562 -0.0670354
-0.0272531 0.0270945 -0.0690631
-0.0274957 0.027287 -0.0693538
-0.0277336 0.0274095 -0.0695537
-0.0279666 0.0274567 -0.0696561
-0.0290149 0.0296583 -0.0726722
-0.0292433 0.0296592 -0.0727143
-0.02947 0.0296293 -0.0727164
-0.029709 0.0298211 -0.0730057
-0.0301748 0.0341217 -0.0786145
-0.0303997 0.0341211 -0.0786539
-0.0306285 0.0341919 -0.0787859
-0.0308536 0.0341958 -0.0788312
-0.0310768 0.0341667 -0.0788338
-0.0313014 0.0341629 -0.0788692
-0.0315245 0.034129 -0.0788656
-0.0317466 0.0340771 -0.0788387
-0.0319698 0.0340451 -0.0788376
-0.0321955 0.0340643 -0.0789028
-0.0324566 0.0348231 -0.0799244
-0.0327004 0.0352408 -0.0805048
-0.0329685 0.0361925 -0.0817756
-0.0344057 0.0385505 -0.0850629
-0.034644 0.0389654 -0.0856387
-0.0348697 0.0390865 -0.0858348
-0.035093 0.0391508 -0.0859575
-0.035334 0.0396704 -0.0866683
-0.0355587 0.0397885 -0.0868604
-0.0358372 0.0413321 -0.0888936
-0.0360621 0.0414934 -0.0891412
-0.0362806 0.0414882 -0.0891738
-0.0364997 0.0415004 -0.0892288
-0.0367213 0.041583 -0.0893747
-0.0378441 0.0620396 -0.115859
-0.0380488 0.0620709 -0.115936
-0.0382661 0.0624956 -0.11652
-0.0384759 0.0627023 -0.116823
-0.0386957 0.0632456 -0.117561
-0.0389059 0.0634971 -0.117922
-0.0391293 0.0642136 -0.118883
-0.0393429 0.0646237 -0.119448
-0.0395444 0.0646187 -0.119478
-0.0397454 0.0645962 -0.119485
-0.0399459 0.0645548 -0.119468
-0.0401466 0.0645222 -0.119462
-0.0403473 0.0644851 -0.119451
-0.0405481 0.0644537 -0.119446
-0.040749 0.0644243 -0.119445
-0.0409499 0.064396 -0.119445
-0.0411507 0.0643665 -0.119443
-0.0413516 0.0643374 -0.119442
-0.0415525 0.0643053 -0.119437
-0.0417533 0.0642691 -0.119426
-0.041954 0.0642299 -0.119412
-0.0421548 0.0641916 -0.119399
-0.0423554 0.0641413 -0.11937
-0.042556 0.0640854 -0.119335
-0.0427565 0.0640247 -0.119293
-0.0429569 0.0639546 -0.119239
-0.0431573 0.063874 -0.119172
-0.0433578 0.0637995 -0.119112
-0.0435583 0.0637214 -0.119048
-0.043759 0.0636433 -0.118984
-0.0439599 0.0635841 -0.118944
-0.0441608 0.0635201 -0.118898
-0.0443618 0.0634581 -0.118854
-0.0445629 0.0633952 -0.11881
-0.044764 0.0633333 -0.118767
-0.044965 0.0632489 -0.118694
-0.0451661 0.0631624 -0.11862
-0.0453673 0.0630831 -0.118554
-0.0455687 0.0630106 -0.118497
-0.0457701 0.0629437 -0.118448
-0.0459717 0.062879 -0.118401
-0.0461732 0.0628096 -0.118348
-0.0463749 0.0627542 -0.118313
-0.0465765 0.06264 -0.118203
-0.0467781 0.0624503 -0.117996
-0.0469799 0.0623347 -0.117884
-0.047182 0.0622021 -0.11775
-0.0473842 0.0621065 -0.117664
-0.0475864 0.0620582 -0.117638
-0.0477887 0.062009 -0.117611
-0.0479909 0.061985 -0.117617
-0.0481932 0.0619555 -0.117616
-0.0483954 0.0619484 -0.117643
-0.0493919 0.0637943 -0.120195
-0.0495924 0.0638142 -0.120257
-0.049791 0.0640368 -0.120579
-0.0499886 0.0643341 -0.120996
-0.0501838 0.0648176 -0.121653
-0.0503809 0.0650609 -0.122001
-0.0505752 0.0655072 -0.12261
-0.0507733 0.065603 -0.122769
-0.0509664 0.0660569 -0.123387
-0.0511613 0.0663392 -0.123785
-0.0513581 0.0664637 -0.12398
-0.051551 0.0668204 -0.124474
-0.0517462 0.0670058 -0.124747
-0.0519188 0.06852 -0.126724
-0.0521147 0.0685735 -0.126828
-0.0523109 0.0686106 -0.126911
-0.0525082 0.068583 -0.126911
-0.0527047 0.0685949 -0.126962
-0.0529 0.068664 -0.127087
-0.0530843 0.0692495 -0.127872
-0.0532587 0.0702488 -0.129188
-0.0534545 0.0702327 -0.129203
-0.0536506 0.070203 -0.1292
-0.0538459 0.0702088 -0.129243
-0.0163129 0.0216797 -0.0605387
-0.0165862 0.0220702 -0.0610886
-0.0168509 0.022376 -0.0615282
-0.0171507 0.0230609 -0.0624607
-0.0174393 0.0236368 -0.0632513
-0.0177241 0.0241804 -0.0639999
-0.0179776 0.0243928 -0.0643175
-0.0182507 0.0248241 -0.0649197
-0.0184969 0.0249655 -0.0651451
-0.018741 0.025085 -0.0653419
-0.0189761 0.0251062 -0.065411
-0.019208 0.0250922 -0.0654343
-0.0194385 0.0250614 -0.0654358
-0.0196758 0.0251098 -0.0655401
-0.0199103 0.0251267 -0.0656035
-0.020143 0.0251239 -0.0656414
-0.0203774 0.0251414 -0.0657056
-0.0206132 0.025176 -0.065792
-0.0208423 0.025131 -0.065775
-0.0210778 0.0251632 -0.0658583
-0.0213116 0.0251755 -0.0659157
-0.0215411 0.0251363 -0.0659063
-0.0217728 0.0251232 -0.0659307
-0.0220049 0.0251165 -0.0659635
-0.0222347 0.0250794 -0.0659569
-0.0224689 0.0251004 -0.0660255
-0.0226972 0.0250448 -0.065995
-0.0229277 0.0250174 -0.0660008
-0.0231578 0.0249845 -0.0659996
-0.0233861 0.0249279 -0.0659677
-0.023613 0.0248521 -0.0659109
-0.0238416 0.0247986 -0.0658829
-0.024069 0.0247275 -0.0658322
-0.0242984 0.024683 -0.0658161
-0.0245277 0.0246374 -0.0657985
-0.0247549 0.0245611 -0.0657411
-0.0249863 0.0245438 -0.0657601
-0.0252169 0.0245164 -0.0657661
-0.0254482 0.0244983 -0.0657841
-0.0256794 0.0244789 -0.0658006
-0.0259095 0.0244421 -0.0657943
-0.0261397 0.0244086 -0.0657925
-0.0263711 0.0243915 -0.0658119
-0.0266104 0.0244972 -0.0659904
-0.0268909 0.0252497 -0.0670064
-0.027233 0.0269936 -0.069306
-0.0274697 0.0270939 -0.0694771
-0.0277092 0.0272427 -0.0697109
-0.0279488 0.0273976 -0.0699525
-0.0281833 0.0274715 -0.0700894
-0.0284232 0.0276383 -0.0703463
-0.0286918 0.0282965 -0.0712392
-0.028968 0.029103 -0.0723239
-0.029212 0.0293712 -0.0727118
-0.0294396 0.0293567 -0.0727339
-0.0296732 0.0294491 -0.0728942
-0.0301439 0.0338336 -0.0786065
-0.0303704 0.0338593 -0.0786801
-0.0305988 0.033923 -0.0788026
-0.0308253 0.0339538 -0.0788827
-0.0310496 0.0339426 -0.0789085
-0.0312732 0.0339197 -0.0789191
-0.0314972 0.0339036 -0.0789386
-0.0317181 0.0338264 -0.0788791
-0.0319418 0.0338046 -0.0788911
-0.032164 0.0337506 -0.0788616
-0.0324201 0.0344016 -0.0797431
-0.0346194 0.0387883 -0.0857681
-0.0348462 0.0389361 -0.0859984
-0.0350669 0.038937 -0.0860392
-0.0352888 0.0389712 -0.0861229
-0.035524 0.0393504 -0.0866519
-0.0357853 0.0404323 -0.0880875
-0.0360314 0.0411515 -0.0890548
-0.036251 0.0411703 -0.0891183
-0.0364706 0.0411944 -0.0891887
-0.0366949 0.0413523 -0.0894316
-0.036916 0.0414249 -0.0895645
-0.0380266 0.0619269 -0.11608
-0.0382359 0.0621022 -0.116343
-0.0384462 0.0623191 -0.116659
-0.0386628 0.0627519 -0.117253
-0.0388791 0.0631965 -0.117863
-0.0391041 0.0639625 -0.118887
-0.0393205 0.064468 -0.119574
-0.0395224 0.0644791 -0.119625
-0.0397231 0.0644448 -0.119617
-0.0399236 0.0644054 -0.119602
-0.0401243 0.0643727 -0.119597
-0.040325 0.0643385 -0.119589
-0.0405257 0.0643037 -0.11958
-0.0407265 0.064272 -0.119576
-0.0409273 0.0642395 -0.11957
-0.0411282 0.0642086 -0.119566
-0.041329 0.0641759 -0.119561
-0.0415298 0.0641408 -0.119552
-0.0417305 0.0641039 -0.11954
-0.0419313 0.0640629 -0.119524
-0.042132 0.0640197 -0.119505
-0.0423325 0.0639667 -0.119473
-0.042533 0.0639081 -0.119434
-0.0427335 0.063842 -0.119385
-0.042934 0.0637782 -0.119339
-0.0431345 0.0637075 -0.119284
-0.0433348 0.0636216 -0.11921
-0.0435354 0.0635468 -0.11915
-0.0437361 0.0634749 -0.119094
-0.043937 0.063408 -0.119045
-0.0441378 0.0633392 -0.118992
-0.0443388 0.0632732 -0.118944
-0.0445398 0.0632022 -0.118889
-0.0447409 0.0631308 -0.118834
-0.044942 0.0630638 -0.118784
-0.0451431 0.0629678 -0.118697
-0.0453443 0.0628884 -0.118631
-0.0455458 0.0628358 -0.1186
-0.0457471 0.0627571 -0.118535
-0.0459487 0.0627051 -0.118505
-0.0461503 0.0626405 -0.118458
-0.046352 0.0625787 -0.118416
-0.0465537 0.0625108 -0.118365
-0.0467552 0.0623244 -0.118162
-0.046957 0.0621127 -0.117927
-0.047159 0.0620076 -0.117828
-0.0473612 0.0619212 -0.117754
-0.0475635 0.06185 -0.117699
-0.0477658 0.061809 -0.117683
-0.047968 0.0617809 -0.117683
-0.0481703 0.0617504 -0.117681
-0.0483726 0.0617388 -0.117702
-0.0485749 0.0617025 -0.117692
-0.0493693 0.0635943 -0.120264
-0.0495698 0.0636189 -0.120332
-0.0497679 0.0639081 -0.120739
-0.0499666 0.0640877 -0.121005
-0.0501633 0.0644342 -0.121486
-0.0503598 0.0647454 -0.121921
-0.0505543 0.0651907 -0.122528
-0.0507523 0.0653004 -0.122704
-0.0509466 0.0656778 -0.123224
-0.0511397 0.0661053 -0.123807
-0.0513353 0.0663073 -0.124102
-0.0515292 0.066605 -0.124519
-0.0517265 0.0666656 -0.124633
-0.0519026 0.0679834 -0.126356
-0.0520948 0.0682688 -0.126757
-0.0522895 0.0683883 -0.126946
-0.052486 0.0684045 -0.127002
-0.052683 0.0683925 -0.127023
-0.0528789 0.0684351 -0.127113
-0.0530696 0.0687216 -0.127515
-0.0532381 0.0700084 -0.129197
-0.0534328 0.0700438 -0.129278
-0.0536294 0.0699932 -0.129249
-0.0538247 0.0700024 -0.129296
-0.0165425 0.0216932 -0.0609803
-0.0168103 0.0220305 -0.0614605
-0.0171089 0.0227006 -0.0623729
-0.0174022 0.0233258 -0.0632269
-0.0176692 0.0236769 -0.0637246
-0.017954 0.0242276 -0.0644816
-0.0182228 0.024611 -0.065021
-0.0184835 0.024913 -0.0654547
-0.0187198 0.0249467 -0.0655399
-0.0189622 0.02505 -0.0657155
-0.0191949 0.0250465 -0.0657523
-0.0194274 0.0250406 -0.0657862
-0.0196627 0.0250672 -0.0658621
-0.0198961 0.025073 -0.065911
-0.0201271 0.0250499 -0.0659225
-0.0203623 0.0250778 -0.0660001
-0.0205963 0.0250927 -0.0660609
-0.0208252 0.0250457 -0.0660414
-0.0210586 0.0250543 -0.066094
-0.0212933 0.0250785 -0.0661668
-0.021526 0.0250789 -0.0662087
-0.0217551 0.0250353 -0.0661936
-0.0219892 0.0250538 -0.066259
-0.0222179 0.0250048 -0.0662369
-0.0224497 0.0249956 -0.0662664
-0.0226795 0.0249604 -0.0662621
-0.0229077 0.0249034 -0.0662296
-0.0231358 0.0248464 -0.0661973
-0.0233637 0.024784 -0.0661578
-0.0235914 0.0247198 -0.066116
-0.0238201 0.0246671 -0.0660893
-0.0240459 0.024575 -0.0660114
-0.0242722 0.0244882 -0.0659404
-0.0244996 0.0244163 -0.0658888
-0.0247305 0.0243926 -0.0658996
-0.0249582 0.0243222 -0.0658499
-0.0251912 0.024329 -0.0659002
-0.0254206 0.0242826 -0.0658815
-0.0256514 0.024257 -0.0658898
-0.0258804 0.0242048 -0.0658638
-0.0261095 0.0241528 -0.0658379
-0.0263391 0.0241092 -0.065823
-0.0272077 0.0268125 -0.069445
-0.0274459 0.0269362 -0.0696462
-0.0276839 0.0270612 -0.069849
-0.0279247 0.0272341 -0.0701137
-0.0281626 0.0273661 -0.0703255
-0.028404 0.0275583 -0.0706152
-0.028639 0.0276481 -0.0707723
-0.0289116 0.0283863 -0.0717677
-0.0291643 0.0287979 -0.0723407
-0.0294017 0.0289511 -0.0725796
-0.0296477 0.0292632 -0.0730238
-0.0301157 0.033594 -0.0786614
-0.0303421 0.0336189 -0.078734
-0.0305704 0.0336794 -0.0788523
-0.0307955 0.0336824 -0.0788964
-0.0310211 0.0336945 -0.0789523
-0.0312437 0.03365 -0.0789351
-0.0314678 0.0336354 -0.0789564
-0.0316898 0.03358 -0.0789251
-0.031912 0.0335253 -0.0788947
-0.0321342 0.0334727 -0.078867
-0.0323855 0.0340212 -0.0796154
-0.0326201 0.0342377 -0.079935
-0.0345955 0.0386272 -0.0859181
-0.0348214 0.0387528 -0.0861196
-0.0350413 0.0387344 -0.0861355
-0.0352643 0.0387964 -0.0862549
-0.0355028 0.0392608 -0.0868933
-0.0357535 0.0400648 -0.0879693
-0.0359924 0.0405834 -0.0886772
-0.0362223 0.04088 -0.0890988
-0.0364437 0.0409494 -0.0892274
-0.0366666 0.0410663 -0.0894174
-0.0368878 0.0411393 -0.0895506
-0.038424 0.0621738 -0.116801
-0.0386388 0.0625463 -0.117318
-0.0388546 0.0629762 -0.117908
-0.0390701 0.0634121 -0.118505
-0.0392883 0.0639695 -0.119259
-0.0394998 0.0643161 -0.119742
-0.0397012 0.0643091 -0.119769
-0.0399017 0.0642705 -0.119755
-0.0401022 0.0642296 -0.119739
-0.0403027 0.0641905 -0.119725
-0.0405033 0.0641502 -0.119709
-0.040704 0.0641165 -0.119702
-0.0409047 0.0640801 -0.119692
-0.0411055 0.0640459 -0.119684
-0.0413063 0.0640106 -0.119675
-0.041507 0.0639727 -0.119662
-0.0417077 0.063933 -0.119647
-0.0419084 0.0638901 -0.119628
-0.042109 0.0638438 -0.119605
-0.0423096 0.0637914 -0.119574
-0.0425101 0.0637327 -0.119535
-0.0427106 0.0636727 -0.119494
-0.042911 0.0635986 -0.119435
-0.0431115 0.0635261 -0.119378
-0.0433119 0.0634455 -0.119311
-0.0435125 0.0633713 -0.119252
-0.0437132 0.0633022 -0.119199
-0.043914 0.0632315 -0.119145
-0.0441148 0.0631521 -0.119079
-0.0443157 0.0630779 -0.11902
-0.0445167 0.0630089 -0.118968
-0.0447179 0.0629456 -0.118923
-0.0449189 0.0628676 -0.118859
-0.0451201 0.0627856 -0.11879
-0.0453213 0.0627052 -0.118723
-0.0455226 0.0626278 -0.11866
-0.0457241 0.0625658 -0.118617
-0.0459258 0.0625196 -0.118594
-0.0461275 0.0624787 -0.118578
-0.0463291 0.0624051 -0.11852
-0.0465307 0.0623332 -0.118464
-0.0471361 0.0618076 -0.117899
-0.0473383 0.0616871 -0.117781
-0.0475406 0.0616193 -0.117731
-0.0477429 0.0615946 -0.117736
-0.0479452 0.0615531 -0.117719
-0.0481475 0.0615416 -0.117741
-0.0483498 0.0615296 -0.117762
-0.0485521 0.0614949 -0.117754
-0.0487546 0.0614434 -0.117724
-0.0495457 0.0636122 -0.120649
-0.049746 0.0636375 -0.120717
-0.0499451 0.0637854 -0.120943
-0.0501416 0.0641639 -0.121464
-0.0503403 0.0642833 -0.121653
-0.0505369 0.0645757 -0.122063
-0.050729 0.0651875 -0.122883
-0.0509224 0.0656354 -0.123492
-0.0511171 0.0659365 -0.123913
-0.0513121 0.0661878 -0.124271
-0.0515066 0.0664436 -0.124634
-0.0517026 0.0665832 -0.124849
-0.051879 0.0678884 -0.126554
-0.0520737 0.0680276 -0.126768
-0.0522682 0.0681615 -0.126975
-0.0524668 0.0680691 -0.126892
-0.0526629 0.0681087 -0.126979
-0.0528578 0.0682053 -0.127138
-0.0530399 0.0689073 -0.128071
-0.0532198 0.0696609 -0.12907
-0.053413 0.069772 -0.129247
-0.053609 0.0697516 -0.129257
-0.0538046 0.0697469 -0.129286
-0.0539988 0.0697983 -0.129387
-0.0164963 0.0212904 -0.0608389
-0.016776 0.0217512 -0.061479
-0.0170509 0.0221689 -0.062063
-0.0173512 0.0228657 -0.0630092
-0.0176175 0.0232071 -0.0634938
-0.0178948 0.0236735 -0.0641408
-0.0181792 0.0242262 -0.0648995
-0.018456 0.0247036 -0.0655604
-0.0186985 0.024807 -0.065736
-0.0189433 0.0249381 -0.0659473
-0.0191821 0.0250038 -0.066074
-0.0194136 0.0249875 -0.0660943
-0.019646 0.0249824 -0.0661291
-0.0198804 0.0250006 -0.066194
-0.0201131 0.0249995 -0.066234
-0.0203453 0.0249929 -0.0662669
-0.0205781 0.0249927 -0.066308
-0.0208115 0.0250024 -0.0663618
-0.0210426 0.0249829 -0.066378
-0.0212749 0.024979 -0.0664143
-0.021509 0.0249986 -0.0664811
-0.0217399 0.0249775 -0.0664952
-0.02197 0.0249475 -0.0664977
-0.0222007 0.024925 -0.0665098
-0.0224295 0.0248778 -0.06649
-0.0226574 0.0248184 -0.0664546
-0.0228856 0.0247635 -0.0664249
-0.0231136 0.024704 -0.0663891
-0.0233412 0.0246386 -0.0663459
-0.023568 0.0245624 -0.0662887
-0.0237949 0.0244861 -0.0662313
-0.0240207 0.0243947 -0.0661544
-0.0242435 0.0242601 -0.0660216
-0.0244679 0.0241442 -0.065913
-0.0246996 0.0241319 -0.0659386
-0.0249332 0.0241453 -0.0659975
-0.025159 0.0240471 -0.0659119
-0.025391 0.0240386 -0.0659424
-0.0256233 0.0240344 -0.0659784
-0.0258515 0.0239702 -0.0659368
-0.0260783 0.0238842 -0.0658671
-0.0263081 0.0238413 -0.0658531
-0.0265446 0.023902 -0.0659731
-0.0267623 0.0236711 -0.065716
-0.0271769 0.026543 -0.0694697
-0.0274207 0.0267562 -0.0697864
-0.0276636 0.0269597 -0.0700904
-0.0279005 0.0270702 -0.0702742
-0.0281478 0.0273567 -0.0706856
-0.0283838 0.027461 -0.0708613
-0.0286159 0.0275042 -0.0709581
-0.028864 0.0278221 -0.0714097
-0.0291141 0.0281829 -0.0719166
-0.0293637 0.028546 -0.0724264
-0.0303134 0.0333691 -0.0787758
-0.0305413 0.0334211 -0.0788831
-0.0307665 0.0334261 -0.0789298
-0.0309918 0.0334316 -0.0789771
-0.0312146 0.0333898 -0.0789634
-0.0314367 0.0333361 -0.0789343
-0.0316583 0.0332693 -0.0788883
-0.0318785 0.0331747 -0.0788065
-0.0321049 0.0332039 -0.0788845
-0.0323567 0.0337624 -0.079645
-0.0345619 0.0382355 -0.0857709
-0.0347944 0.0385185 -0.086175
-0.0350158 0.0385367 -0.086238
-0.0352354 0.0385103 -0.0862436
-0.0354673 0.0388021 -0.086659
-0.0357255 0.0397957 -0.0879782
-0.0359581 0.0401444 -0.0884667
-0.0361806 0.0402313 -0.0886179
-0.0364066 0.0404215 -0.0889021
-0.0366346 0.0406769 -0.0892701
-0.0388281 0.0626849 -0.117861
-0.0390394 0.0629767 -0.118273
-0.0392615 0.0636626 -0.119191
-0.039477 0.0641461 -0.11985
-0.0396789 0.0641601 -0.119904
-0.0398794 0.0641194 -0.119888
-0.0400798 0.0640765 -0.119869
-0.0402803 0.0640364 -0.119853
-0.0404809 0.0639967 -0.119838
-0.0406814 0.0639566 -0.119823
-0.0408821 0.0639185 -0.11981
-0.0410828 0.0638821 -0.1198
-0.0412835 0.0638437 -0.119787
-0.0414842 0.0638027 -0.11977
-0.0416848 0.0637609 -0.119753
-0.0418854 0.0637152 -0.11973
-0.042086 0.0636659 -0.119703
-0.0422866 0.0636109 -0.119669
-0.042487 0.0635481 -0.119624
-0.0426875 0.0634878 -0.119583
-0.042888 0.0634214 -0.119534
-0.0430884 0.0633425 -0.119469
-0.0432889 0.0632629 -0.119403
-0.0434894 0.0631812 -0.119334
-0.0436902 0.0631148 -0.119285
-0.0438909 0.0630396 -0.119225
-0.0440917 0.0629599 -0.119159
-0.0442926 0.0628824 -0.119096
-0.0444936 0.062811 -0.119041
-0.0446947 0.0627454 -0.118993
-0.0448958 0.0626665 -0.118928
-0.045097 0.0625921 -0.118869
-0.0452983 0.0625197 -0.118812
-0.0454997 0.062445 -0.118753
-0.0457012 0.0623813 -0.118708
-0.0459027 0.0623201 -0.118666
-0.0461045 0.0622864 -0.118659
-0.0463062 0.0622339 -0.118628
-0.0473153 0.0614751 -0.117838
-0.0475177 0.0613999 -0.117778
-0.04772 0.0613521 -0.117753
-0.0479224 0.0613298 -0.117761
-0.0481248 0.0612979 -0.117756
-0.048327 0.0612956 -0.11779
-0.0485295 0.0612483 -0.117766
-0.0487322 0.0611521 -0.117679
-0.0501193 0.0639581 -0.121525
-0.0503185 0.0640328 -0.121656
-0.050517 0.0641667 -0.121864
-0.0507157 0.0642594 -0.122018
-0.0509002 0.0654388 -0.123563
-0.0510943 0.0657857 -0.124042
-0.0520537 0.0677211 -0.126696
-0.0522509 0.0677151 -0.126724
-0.0524472 0.0677552 -0.12681
-0.0526429 0.0678234 -0.126933
-0.0528371 0.0679595 -0.127143
-0.0530269 0.0682935 -0.127605
-0.0531991 0.0694236 -0.129084
-0.0533937 0.0694748 -0.129185
-0.0535877 0.0695442 -0.129309
-0.0537842 0.0695043 -0.129293
-0.0539784 0.06956 -0.1294
-0.0541723 0.0696227 -0.129515
-0.0164525 0.0209126 -0.0607304
-0.0167344 0.0213959 -0.0613991
-0.0170119 0.0218396 -0.0620163
-0.0172979 0.0223817 -0.0627612
-0.0175883 0.0229805 -0.0635792
-0.0178661 0.0234523 -0.0642325
-0.0181414 0.0239044 -0.0648601
-0.0184183 0.0243819 -0.0655205
-0.0186803 0.0247015 -0.0659762
-0.0189179 0.0247527 -0.0660839
-0.0191623 0.0248825 -0.0662935
-0.0193999 0.0249366 -0.066405
-0.0196336 0.0249464 -0.066459
-0.0198687 0.0249746 -0.0665368
-0.0201004 0.0249632 -0.0665634
-0.0203338 0.0249715 -0.0666154
-0.0205666 0.0249738 -0.0666597
-0.0207985 0.0249665 -0.0666917
-0.0210274 0.0249218 -0.0666751
-0.0212594 0.0249161 -0.066709
-0.0214914 0.0249097 -0.066742
-0.0217208 0.0248714 -0.0667338
-0.0219497 0.0248272 -0.066718
-0.0221785 0.0247807 -0.0666991
-0.0224071 0.0247322 -0.0666777
-0.022634 0.0246601 -0.0666258
-0.0228626 0.0246098 -0.066602
-0.0230899 0.0245424 -0.0665561
-0.0233148 0.0244424 -0.0664682
-0.0235423 0.0243753 -0.0664228
-0.0237675 0.0242755 -0.066335
-0.0239925 0.0241723 -0.066243
-0.0246696 0.0238824 -0.0659925
-0.0248985 0.023829 -0.0659649
-0.0251348 0.0238827 -0.0660757
-0.0253642 0.0238353 -0.0660559
-0.0255869 0.0236893 -0.0659086
-0.0258134 0.0235983 -0.0658325
-0.0260336 0.0234098 -0.0656304
-0.0262682 0.0234387 -0.0657093
-0.0265156 0.0236651 -0.0660431
-0.0267582 0.0238223 -0.0662875
-0.0271424 0.0262155 -0.0694196
-0.0273925 0.0265275 -0.0698637
-0.0276341 0.0267098 -0.0701401
-0.0278755 0.0268926 -0.0704171
-0.0281244 0.0272062 -0.070863
-0.028359 0.0272871 -0.0710084
-0.0285944 0.027386 -0.071177
-0.0288328 0.0275387 -0.071415
-0.0290718 0.0277047 -0.0716701
-0.0302866 0.0331558 -0.0788649
-0.0305117 0.0331561 -0.0789054
-0.030737 0.0331594 -0.0789499
-0.0309625 0.0331696 -0.0790033
-0.0311868 0.0331557 -0.0790256
-0.0314 0.0329264 -0.0787702
-0.0316216 0.0328575 -0.0787214
-0.0318469 0.0328609 -0.0787661
-0.0320704 0.0328288 -0.078765
-0.0323271 0.0334858 -0.0796519
-0.032557 0.0335979 -0.0798364
-0.0345369 0.0380492 -0.0858885
-0.0347678 0.0382926 -0.0862415
-0.0349912 0.0383593 -0.0863667
-0.0352096 0.0383024 -0.086333
-0.035431 0.0383234 -0.0863996
-0.0357017 0.0396391 -0.0881322
-0.0359314 0.0399111 -0.0885215
-0.036152 0.0399438 -0.0886028
-0.0363753 0.0400545 -0.0887845
-0.0366074 0.040422 -0.0892965
-0.0387963 0.0622202 -0.117592
-0.0390125 0.0626722 -0.118209
-0.0392313 0.0632357 -0.11897
-0.0394522 0.0639068 -0.119869
-0.0396565 0.0640062 -0.120032
-0.0398567 0.0639569 -0.120005
-0.0400573 0.0639182 -0.119992
-0.0402578 0.06388 -0.119979
-0.0404583 0.0638391 -0.119962
-0.0406588 0.063795 -0.119942
-0.0408594 0.0637544 -0.119926
-0.04106 0.0637145 -0.119911
-0.0412607 0.0636736 -0.119894
-0.0414613 0.0636303 -0.119875
-0.0416619 0.0635841 -0.119852
-0.0418624 0.0635363 -0.119827
-0.042063 0.0634861 -0.119799
-0.0422634 0.0634236 -0.119755
-0.0424639 0.0633619 -0.119712
-0.0426645 0.0633032 -0.119673
-0.0428649 0.0632319 -0.119617
-0.0430654 0.0631603 -0.119562
-0.0432658 0.0630781 -0.119492
-0.0434663 0.0629953 -0.119422
-0.043667 0.0629244 -0.119368
-0.0438679 0.0628552 -0.119315
-0.0440686 0.0627743 -0.119248
-0.0442696 0.0627009 -0.11919
-0.0444704 0.0626159 -0.119117
-0.0446715 0.0625405 -0.119057
-0.0448727 0.0624724 -0.119006
-0.0450739 0.0623992 -0.118948
-0.0452752 0.0623204 -0.118884
-0.0454766 0.062251 -0.118831
-0.0456782 0.0621993 -0.118801
-0.0458798 0.0621375 -0.118759
-0.0460815 0.0620985 -0.118745
-0.0462832 0.0620389 -0.118705
-0.0464849 0.0619818 -0.118668
-0.0470901 0.0613714 -0.117996
-0.0472924 0.0612506 -0.117878
-0.0474948 0.0611511 -0.117787
-0.0476972 0.0610876 -0.117742
-0.0478997 0.0610419 -0.11772
-0.048102 0.0610559 -0.117774
-0.0483045 0.0610202 -0.117765
-0.048507 0.0609704 -0.117738
-0.0487096 0.0609067 -0.117693
-0.0504957 0.0638707 -0.121809
-0.0520333 0.0674401 -0.126656
-0.0522293 0.0675046 -0.126774
-0.0524264 0.0675048 -0.12681
-0.0526218 0.0675866 -0.12695
-0.0528159 0.0677342 -0.127174
-0.0530054 0.0680893 -0.127663
-0.0531776 0.0692242 -0.129147
-0.053373 0.069238 -0.1292
-0.0535691 0.0692179 -0.129209
-0.0537645 0.0692296 -0.12926
-0.0539576 0.0693357 -0.12943
-0.016419 0.0206425 -0.060762
-0.0166903 0.0210128 -0.0612837
-0.0169755 0.0215373 -0.0620051
-0.0172347 0.0217911 -0.0623756
-0.0175431 0.0225818 -0.0634417
-0.0178254 0.0230999 -0.0641543
-0.0181067 0.0236173 -0.064866
-0.0183823 0.0240792 -0.0655055
-0.0186567 0.0245368 -0.0661396
-0.0189068 0.0247283 -0.0664289
-0.019146 0.0248004 -0.0665635
-0.0193878 0.0249028 -0.0667373
-0.0196178 0.0248729 -0.0667399
-0.0198578 0.0249582 -0.0668916
-0.0200857 0.0249029 -0.0668614
-0.0203208 0.0249337 -0.0669425
-0.0205515 0.0249125 -0.0669563
-0.020782 0.0248879 -0.0669658
-0.0210111 0.0248482 -0.0669557
-0.0212405 0.0248105 -0.0669482
-0.02147 0.0247752 -0.0669438
-0.0216979 0.0247179 -0.0669111
-0.0219265 0.0246709 -0.0668915
-0.022154 0.0246081 -0.0668517
-0.0223803 0.0245292 -0.066791
-0.0226107 0.0245036 -0.0667992
-0.0228381 0.0244379 -0.0667556
-0.023066 0.024378 -0.0667194
-0.0232905 0.0242722 -0.066624
-0.0235138 0.0241499 -0.0665074
-0.0237334 0.0239743 -0.0663218
-0.0239508 0.0237663 -0.0660944
-0.0246326 0.0235366 -0.065922
-0.0248663 0.0235488 -0.0659791
-0.0250996 0.0235574 -0.0660317
-0.0253297 0.0235202 -0.066025
-0.0255512 0.0233553 -0.0658536
-0.0257727 0.0231873 -0.0656782
-0.0259911 0.022971 -0.0654404
-0.0262221 0.0229404 -0.0654424
-0.0264692 0.0231588 -0.0657657
-0.0266818 0.0228454 -0.0654027
-0.0271049 0.0258418 -0.0693103
-0.0273487 0.0260501 -0.0696203
-0.0276018 0.0264141 -0.0701308
-0.0278516 0.0267346 -0.0705852
-0.0280999 0.0270368 -0.071016
-0.0283346 0.027121 -0.0711654
-0.0285711 0.0272381 -0.0713575
-0.0288073 0.0273531 -0.0715466
-0.0290392 0.0273964 -0.0716434
-0.0315669 0.0320876 -0.0780939
-0.0318095 0.03243 -0.0785753
-0.0320386 0.0325095 -0.0787178
-0.0322968 0.0331949 -0.0796404
-0.0325266 0.0333039 -0.0798209
-0.0345163 0.0379676 -0.086141
-0.0347432 0.0381164 -0.0863719
-0.0349632 0.0380981 -0.0863877
-0.0351829 0.0380741 -0.0863963
-0.0354037 0.0380786 -0.0864416
-0.035659 0.0389859 -0.0876476
-0.0359072 0.0397421 -0.0886592
-0.0361281 0.039783 -0.0887509
-0.0363465 0.0397583 -0.0887584
-0.0365653 0.0397452 -0.0887809
-0.0389875 0.0624325 -0.118229
-0.0391961 0.0626392 -0.118531
-0.0394213 0.0634492 -0.119607
-0.0396335 0.0638307 -0.120133
-0.0398341 0.0637943 -0.120123
-0.0400346 0.0637544 -0.120107
-0.0402351 0.0637151 -0.120093
-0.0404356 0.0636719 -0.120074
-0.0406361 0.0636297 -0.120056
-0.0408366 0.0635843 -0.120034
-0.0410371 0.0635418 -0.120015
-0.0412377 0.0634989 -0.119996
-0.0414383 0.0634534 -0.119974
-0.0416389 0.0634059 -0.11995
-0.0418394 0.0633534 -0.119918
-0.0420399 0.063302 -0.119889
-0.0422403 0.0632393 -0.119844
-0.0424408 0.0631762 -0.1198
-0.0426413 0.063115 -0.119757
-0.0428418 0.0630475 -0.119707
-0.0430422 0.0629697 -0.119644
-0.0432427 0.0628905 -0.119578
-0.0434432 0.062806 -0.119506
-0.043644 0.0627442 -0.119463
-0.0438447 0.0626647 -0.119398
-0.0440455 0.0625826 -0.119329
-0.0442464 0.0625071 -0.119268
-0.0444473 0.0624212 -0.119195
-0.0446484 0.0623428 -0.11913
-0.0448496 0.0622774 -0.119083
-0.045051 0.0622169 -0.119042
-0.0452521 0.0621265 -0.118962
-0.0454536 0.0620634 -0.118918
-0.0456551 0.0619961 -0.118868
-0.0458567 0.0619345 -0.118826
-0.0460584 0.0618879 -0.118802
-0.0462602 0.0618624 -0.118806
-0.0470671 0.0611323 -0.118017
-0.0472694 0.0610188 -0.117909
-0.0474718 0.0609415 -0.117846
-0.0476744 0.060811 -0.117716
-0.0478769 0.0607806 -0.117713
-0.0480793 0.0607837 -0.117754
-0.0482819 0.060741 -0.117736
-0.0484845 0.0606981 -0.117718
-0.0520219 0.0666234 -0.125933
-0.0522083 0.0672585 -0.126779
-0.0524052 0.0672686 -0.126828
-0.0526038 0.0671935 -0.126767
-0.0527977 0.067359 -0.127014
-0.0529874 0.0677108 -0.127498
-0.053157 0.0689806 -0.129153
-0.0533527 0.0689828 -0.129191
-0.0535475 0.0690265 -0.129282
-0.053744 0.0689931 -0.129275
-0.0539384 0.069043 -0.129374
-0.0166441 0.020609 -0.0611418
-0.0169245 0.0210805 -0.0617941
-0.0171982 0.0214878 -0.0623629
-0.0175001 0.0222065 -0.0633348
-0.0177842 0.0227433 -0.0640711
-0.0180619 0.0232187 -0.0647277
-0.0183369 0.0236729 -0.0653569
-0.018615 0.0241691 -0.0660402
-0.0188793 0.0245193 -0.0665346
-0.0191295 0.0247148 -0.0668288
-0.0193664 0.0247639 -0.0669335
-0.0196028 0.0248073 -0.0670308
-0.0198394 0.0248536 -0.067132
-0.0200752 0.0248925 -0.0672236
-0.0203045 0.0248556 -0.067217
-0.0205335 0.024815 -0.0672058
-0.0207621 0.0247697 -0.0671884
-0.02099 0.0247152 -0.0671592
-0.0212181 0.024663 -0.0671331
-0.0214465 0.0246132 -0.06711
-0.021673 0.0245402 -0.0670568
-0.0219019 0.024496 -0.0670411
-0.0221315 0.0244599 -0.0670357
-0.0223572 0.0243747 -0.0669669
-0.0225845 0.0243085 -0.0669226
-0.0228096 0.0242128 -0.0668404
-0.0230377 0.0241556 -0.0668078
-0.0232601 0.0240226 -0.0666773
-0.023485 0.0239197 -0.0665858
-0.0237071 0.0237782 -0.0664444
-0.0243741 0.0233491 -0.0660148
-0.0246092 0.0233807 -0.0660969
-0.0248338 0.0232654 -0.0659894
-0.0250577 0.0231376 -0.0658661
-0.0252851 0.023057 -0.0658035
-0.0255105 0.0229471 -0.0657031
-0.0257358 0.0228351 -0.0656001
-0.0259615 0.0227252 -0.0654999
-0.0261887 0.0226375 -0.0654282
-0.0264215 0.022634 -0.0654652
-0.0266475 0.0225262 -0.0653677
-0.0270736 0.0255662 -0.069328
-0.0273161 0.025752 -0.0696085
-0.0275728 0.0261729 -0.0701919
-0.0278221 0.0264831 -0.0706327
-0.0280742 0.0268483 -0.0711442
-0.0283089 0.026932 -0.071293
-0.0285466 0.0270687 -0.07151
-0.0287831 0.0271888 -0.0717057
-0.0290124 0.0271879 -0.0717453
-0.0292418 0.0271904 -0.0717894
-0.0294947 0.0276112 -0.0723721
-0.0298059 0.0290922 -0.0743199
-0.0300407 0.0292198 -0.0745249
-0.0302766 0.0293713 -0.0747605
-0.0305059 0.0294044 -0.0748437
-0.0312929 0.031449 -0.0775965
-0.0315311 0.0316935 -0.0779514
-0.0317693 0.0319454 -0.0783158
-0.0320025 0.0321037 -0.0785597
-0.0322583 0.0327353 -0.0794123
-0.0324969 0.0330254 -0.0798256
-0.0347158 0.0378697 -0.0864116
-0.0349372 0.0378879 -0.0864744
-0.0351571 0.0378668 -0.0864868
-0.0353778 0.0378688 -0.0865288
-0.035635 0.038825 -0.0877965
-0.0358826 0.0395642 -0.0887852
-0.0361011 0.0395402 -0.0887937
-0.0363196 0.0395167 -0.0888028
-0.0365373 0.039472 -0.0887845
-0.0389614 0.0621542 -0.1182
-0.0391726 0.0624486 -0.118614
-0.039391 0.063016 -0.119378
-0.0396081 0.0635661 -0.12012
-0.0398112 0.06362 -0.120225
-0.0400118 0.0635861 -0.120218
-0.0402121 0.0635388 -0.120193
-0.0404126 0.0634959 -0.120174
-0.0406132 0.0634585 -0.120162
-0.0408137 0.0634119 -0.120139
-0.0410142 0.0633661 -0.120116
-0.0412147 0.0633207 -0.120094
-0.0414153 0.0632734 -0.12007
-0.0416158 0.0632263 -0.120045
-0.0418164 0.0631769 -0.120018
-0.0420168 0.0631194 -0.119981
-0.0422173 0.0630571 -0.119937
-0.0424177 0.0629959 -0.119895
-0.0426183 0.0629338 -0.119851
-0.0428187 0.0628634 -0.119797
-0.0430192 0.0627882 -0.119737
-0.0432196 0.0627041 -0.119666
-0.0434202 0.0626247 -0.1196
-0.0436209 0.0625517 -0.119543
-0.0438216 0.0624724 -0.119478
-0.0440225 0.0623968 -0.119417
-0.0442232 0.0623075 -0.119339
-0.0444242 0.062227 -0.119272
-0.0446253 0.0621511 -0.119212
-0.0448265 0.0620787 -0.119155
-0.0450278 0.0620146 -0.11911
-0.0452292 0.0619501 -0.119063
-0.0454306 0.0618813 -0.119012
-0.0456322 0.0618175 -0.118966
-0.0458338 0.0617632 -0.118933
-0.0476515 0.0605354 -0.117691
-0.0478542 0.0604703 -0.117645
-0.0480568 0.0604532 -0.117659
-0.0482593 0.0604576 -0.117701
-0.0484618 0.0604489 -0.117727
-0.0519992 0.0664728 -0.126061
-0.0521937 0.066647 -0.126319
-0.0523878 0.0668342 -0.126593
-0.0525841 0.0668841 -0.126692
-0.052778 0.0670541 -0.126944
-0.0529625 0.0676699 -0.127764
-0.053136 0.0687547 -0.129182
-0.0533316 0.0687659 -0.129231
-0.0535275 0.0687619 -0.129262
-0.0537247 0.068698 -0.129216
-0.053919 0.0687606 -0.129331
-0.0168759 0.020649 -0.0616163
-0.0171627 0.0211944 -0.0623634
-0.0174375 0.0216202 -0.0629556
-0.0177343 0.0222915 -0.0638652
-0.0180011 0.0226453 -0.064364
-0.0182906 0.0232562 -0.0651952
-0.0185647 0.0237068 -0.0658191
-0.0188371 0.0241452 -0.066427
-0.0190963 0.024442 -0.0668518
-0.0193508 0.0246902 -0.0672138
-0.0195904 0.0247712 -0.0673596
-0.0198221 0.024763 -0.0673902
-0.0200539 0.0247556 -0.0674218
-0.0202846 0.0247358 -0.0674375
-0.0205114 0.024669 -0.0673924
-0.0207392 0.0246152 -0.0673641
-0.0209679 0.0245708 -0.067348
-0.0211957 0.0245145 -0.0673165
-0.0214202 0.0244176 -0.0672326
-0.0216474 0.0243526 -0.0671899
-0.021878 0.0243296 -0.0672015
-0.0221013 0.0242149 -0.0670947
-0.0223306 0.0241748 -0.0670841
-0.0225569 0.0240961 -0.0670238
-0.0227772 0.0239372 -0.0668601
-0.0230061 0.0238904 -0.066841
-0.0232265 0.0237296 -0.0666748
-0.0234452 0.0235425 -0.0664747
-0.0236798 0.0235695 -0.0665509
-0.0238942 0.0233189 -0.066269
-0.0241177 0.0231906 -0.0661449
-0.0243429 0.0230849 -0.06605
-0.0245666 0.022956 -0.0659251
-0.0247959 0.0229044 -0.0659
-0.0250226 0.0228146 -0.0658258
-0.0252493 0.0227242 -0.0657506
-0.0254771 0.0226473 -0.0656929
-0.0257073 0.0226066 -0.0656818
-0.0259333 0.0225008 -0.0655871
-0.0261607 0.0224165 -0.0655198
-0.0263923 0.0223934 -0.0655315
-0.0266213 0.0223324 -0.0654943
-0.0270458 0.0253442 -0.0694147
-0.0272851 0.0254801 -0.0696308
-0.0275362 0.0258092 -0.0700956
-0.0277919 0.0262216 -0.0706676
-0.0280506 0.0266942 -0.0713169
-0.0282868 0.026803 -0.0714978
-0.0285215 0.0268895 -0.07165
-0.0287567 0.0269884 -0.0718181
-0.0289878 0.0270192 -0.0718985
-0.0292161 0.0270014 -0.0719165
-0.0300146 0.0290214 -0.0746375
-0.030252 0.0292014 -0.0749096
-0.0304802 0.029214 -0.0749662
-0.0307197 0.0294422 -0.0753002
-0.0310191 0.0308298 -0.077125
-0.0312567 0.0310516 -0.0774505
-0.0314984 0.0313615 -0.0778892
-0.0317392 0.0316636 -0.0783178
-0.0319726 0.0318231 -0.0785629
-0.0322189 0.0322558 -0.0791593
-0.0324644 0.0326856 -0.0797518
-0.0349119 0.0376933 -0.0865812
-0.0351323 0.0376859 -0.0866112
-0.0353542 0.0377177 -0.0866914
-0.0356092 0.0386164 -0.0878841
-0.0358548 0.0393 -0.0888006
-0.0360771 0.0393768 -0.0889384
-0.0362935 0.0392965 -0.0888746
-0.036507 0.0391325 -0.0887034
-0.0391461 0.0621534 -0.118563
-0.0393525 0.0622919 -0.118776
-0.0395788 0.0631587 -0.119923
-0.0397874 0.0634155 -0.120289
-0.0399886 0.0634027 -0.120308
-0.0401891 0.063362 -0.120292
-0.0403896 0.0633193 -0.120274
-0.0405902 0.063278 -0.120257
-0.0407906 0.0632311 -0.120233
-0.0409911 0.0631862 -0.120211
-0.0411917 0.0631402 -0.120189
-0.0413922 0.0630917 -0.120162
-0.0415927 0.0630422 -0.120135
-0.0417933 0.0629935 -0.120109
-0.0419938 0.0629386 -0.120075
-0.0421943 0.0628793 -0.120035
-0.0423945 0.0628045 -0.119976
-0.0425951 0.0627408 -0.11993
-0.0427956 0.0626747 -0.119882
-0.0429961 0.0626003 -0.119823
-0.0431964 0.0625129 -0.119747
-0.0433969 0.0624269 -0.119673
-0.0435976 0.0623477 -0.119608
-0.0437985 0.0622817 -0.11956
-0.0439992 0.0621957 -0.119486
-0.0442001 0.0621127 -0.119416
-0.044401 0.0620309 -0.119348
-0.0446022 0.0619626 -0.119297
-0.0448034 0.0618861 -0.119235
-0.0450048 0.0618334 -0.119204
-0.0452062 0.0617659 -0.119154
-0.0454076 0.061696 -0.119101
-0.0456092 0.0616333 -0.119057
-0.0480345 0.0600033 -0.117413
-0.0482374 0.0599424 -0.117371
-0.0519773 0.066272 -0.126125
-0.0521732 0.0663703 -0.126286
-0.0523694 0.0664468 -0.126419
-0.0525631 0.0666423 -0.126703
-0.0527582 0.0667579 -0.126886
-0.0529474 0.0671444 -0.127413
-0.053115 0.0685301 -0.129213
-0.053311 0.0685245 -0.129241
-0.0535074 0.0685017 -0.129247
-0.0537038 0.0684753 -0.129249
-0.0538985 0.0685209 -0.129342
-0.0171268 0.0208969 -0.0623587
-0.017404 0.0213476 -0.0629826
-0.0176833 0.0218279 -0.0636445
-0.0179675 0.0223709 -0.0643874
-0.0182604 0.0230188 -0.0652657
-0.0185242 0.0233523 -0.0657377
-0.0188013 0.0238425 -0.066412
-0.0190723 0.0242716 -0.0670073
-0.0193328 0.0245886 -0.0674577
-0.0195721 0.0246671 -0.0676002
-0.0198029 0.0246498 -0.067619
-0.0200331 0.0246243 -0.0676273
-0.0202614 0.0245762 -0.0676063
-0.0204893 0.0245232 -0.0675791
-0.0207145 0.0244374 -0.0675097
-0.0209428 0.0243886 -0.0674877
-0.0211674 0.0242941 -0.0674071
-0.0213992 0.024287 -0.0674391
-0.0216231 0.0241814 -0.067344
-0.0218483 0.024091 -0.0672687
-0.0220699 0.0239551 -0.0671347
-0.0222964 0.0238779 -0.0670763
-0.0225251 0.0238288 -0.0670542
-0.0227524 0.0237616 -0.0670089
-0.0229765 0.0236505 -0.0669069
-0.0232036 0.0235792 -0.0668563
-0.0234285 0.0234758 -0.0667642
-0.023644 0.0232451 -0.0665082
-0.0238578 0.0229858 -0.0662154
-0.0240819 0.0228641 -0.0661
-0.0243098 0.0227936 -0.0660505
-0.0245363 0.0227031 -0.0659753
-0.0247663 0.0226618 -0.0659635
-0.0249916 0.0225509 -0.0658621
-0.0252197 0.0224794 -0.0658114
-0.025449 0.0224257 -0.0657836
-0.025679 0.0223804 -0.0657667
-0.0259059 0.0222897 -0.0656913
-0.0261315 0.022176 -0.0655864
-0.0263625 0.022145 -0.0655879
-0.0265926 0.0220995 -0.0655708
-0.0270193 0.0251436 -0.0695291
-0.0272514 0.0251642 -0.0695966
-0.0274965 0.0253956 -0.0699354
-0.027761 0.0259488 -0.0706879
-0.0280222 0.0264608 -0.0713874
-0.0282584 0.0265687 -0.0715671
-0.0284916 0.0266297 -0.0716863
-0.028731 0.0267997 -0.0719457
-0.0289618 0.0268244 -0.0720183
-0.02919 0.026806 -0.0720354
-0.0294234 0.0268794 -0.0721707
-0.0296917 0.0275826 -0.0731153
-0.0299816 0.0286986 -0.0745902
-0.0302254 0.0289936 -0.0750098
-0.0304592 0.0291106 -0.0752006
-0.0312202 0.030648 -0.077297
-0.0314635 0.0309856 -0.0777709
-0.0317134 0.0314676 -0.0784302
-0.0319454 0.0315991 -0.0786392
-0.0321921 0.0320402 -0.0792458
-0.032436 0.0324347 -0.0797924
-0.0351063 0.0374727 -0.0866941
-0.0353271 0.0374763 -0.0867381
-0.0355813 0.0383518 -0.0879
-0.0358219 0.0388995 -0.0886415
-0.0360465 0.0390369 -0.0888569
-0.0362634 0.0389667 -0.088806
-0.0364796 0.038874 -0.0887265
-0.0393257 0.0619815 -0.118706
-0.0395523 0.0628554 -0.119861
-0.0397613 0.0631244 -0.120241
-0.0399652 0.063208 -0.120385
-0.0401659 0.0631758 -0.120379
-0.0403664 0.0631331 -0.120361
-0.0405668 0.0630864 -0.120337
-0.0407674 0.0630447 -0.12032
-0.040968 0.0630012 -0.1203
-0.0411685 0.0629549 -0.120277
-0.0413689 0.0629031 -0.120247
-0.0415696 0.0628576 -0.120225
-0.0417702 0.0628115 -0.120202
-0.0419707 0.0627557 -0.120167
-0.0421711 0.0626923 -0.120122
-0.0423714 0.0626206 -0.120066
-0.0425719 0.06255 -0.120012
-0.0427725 0.0624911 -0.119973
-0.0429729 0.0624072 -0.119902
-0.0431732 0.0623139 -0.119819
-0.0433738 0.0622376 -0.119757
-0.0435743 0.062148 -0.119679
-0.0437751 0.0620687 -0.119614
-0.0439759 0.0619868 -0.119545
-0.044177 0.0619262 -0.119504
-0.0443777 0.0618191 -0.119404
-0.0445788 0.061739 -0.119337
-0.0447802 0.0616792 -0.119297
-0.0449817 0.0616381 -0.119281
-0.0451832 0.0615789 -0.119242
-0.0519554 0.0660733 -0.126191
-0.0521526 0.0660974 -0.126258
-0.0523487 0.0661844 -0.126404
-0.0525421 0.0664046 -0.12672
-0.0527373 0.0665117 -0.126891
-0.0529339 0.0665422 -0.126966
-0.0530959 0.0682129 -0.129126
-0.0532904 0.0682845 -0.129252
-0.0534864 0.0682776 -0.129279
-0.0536819 0.0682955 -0.129337
-0.0538772 0.0683172 -0.1294
-0.0540725 0.0683366 -0.12946
-0.0170869 0.0205567 -0.0622991
-0.0173522 0.0208772 -0.0627544
-0.0176488 0.0215443 -0.0636571
-0.0179359 0.0221178 -0.0644385
-0.0181961 0.0224027 -0.0648475
-0.0184822 0.0229823 -0.0656367
-0.0187702 0.023593 -0.066466
-0.0190354 0.0239561 -0.0669755
-0.0193032 0.0243561 -0.0675326
-0.0195495 0.0245149 -0.0677786
-0.0197816 0.024512 -0.067816
-0.0200111 0.0244788 -0.0678143
-0.0202405 0.0244441 -0.0678106
-0.0204673 0.024379 -0.0677678
-0.0206948 0.024321 -0.0677342
-0.0209123 0.0241421 -0.0675448
-0.0211365 0.0240416 -0.0674564
-0.0213649 0.0239927 -0.0674345
-0.0215921 0.0239278 -0.0673921
-0.0218177 0.0238415 -0.067322
-0.02204 0.0237136 -0.0671984
-0.0222691 0.0236695 -0.0671827
-0.0224972 0.0236122 -0.0671502
-0.0227247 0.0235476 -0.0671081
-0.0229518 0.0234764 -0.0670577
-0.0236077 0.0229125 -0.0664554
-0.0238278 0.0227387 -0.066273
-0.0240545 0.0226533 -0.0662043
-0.0242789 0.022534 -0.0660921
-0.0245056 0.0224464 -0.0660208
-0.024734 0.0223808 -0.0659777
-0.0249617 0.0223043 -0.0659206
-0.0251908 0.0222462 -0.0658872
-0.0254211 0.0222062 -0.065877
-0.0256511 0.0221612 -0.0658606
-0.0258759 0.0220391 -0.0657448
-0.0261014 0.0219234 -0.0656376
-0.0263317 0.0218808 -0.0656241
-0.026563 0.0218529 -0.0656296
-0.0269904 0.0249053 -0.0695951
-0.0272208 0.0248992 -0.0696282
-0.0274634 0.0250881 -0.0699121
-0.027719 0.0254941 -0.0704747
-0.0279802 0.0260036 -0.0711705
-0.0282282 0.0263051 -0.0715986
-0.0284668 0.026456 -0.0718335
-0.0287021 0.0265555 -0.072002
-0.0289357 0.0266291 -0.0721373
-0.0291644 0.0266181 -0.072164
-0.0294133 0.0269664 -0.0726521
-0.0296554 0.027202 -0.0729954
-0.0299163 0.0277861 -0.073786
-0.030191 0.0286424 -0.074926
-0.030429 0.0288351 -0.0752139
-0.0306695 0.0290825 -0.075572
-0.0309025 0.0291919 -0.0757528
-0.0311889 0.0303465 -0.077275
-0.0314287 0.0306135 -0.0776579
-0.0316725 0.0309699 -0.0781554
-0.0319153 0.0313156 -0.0786392
-0.0321635 0.0317841 -0.0792804
-0.0324022 0.0320691 -0.0796861
-0.0345771 0.0357672 -0.0847858
-0.0348072 0.0359704 -0.0850858
-0.0350799 0.037251 -0.0867661
-0.035301 0.0372616 -0.0868191
-0.0355225 0.037283 -0.0868859
-0.0357941 0.0386358 -0.088658
-0.0360161 0.0386998 -0.0887792
-0.0362348 0.0386789 -0.0887916
-0.0364521 0.038614 -0.0887477
-0.0366698 0.038563 -0.0887216
-0.039307 0.0619614 -0.119007
-0.0395192 0.0623165 -0.119498
-0.0397337 0.0627743 -0.120119
-0.0399407 0.0629753 -0.120412
-0.0401424 0.0629799 -0.120454
-0.0403431 0.062943 -0.120443
-0.0405437 0.0629065 -0.120432
-0.0407442 0.0628608 -0.12041
-0.0409448 0.0628169 -0.12039
-0.0411454 0.0627728 -0.12037
-0.041346 0.0627257 -0.120346
-0.0415466 0.0626798 -0.120323
-0.0417469 0.062617 -0.120279
-0.0419476 0.0625724 -0.120258
-0.042148 0.062506 -0.120209
-0.0423483 0.0624334 -0.120152
-0.0425488 0.0623644 -0.1201
-0.0427492 0.0622902 -0.120042
-0.0429495 0.0622048 -0.119969
-0.0431499 0.062119 -0.119895
-0.0433502 0.0620129 -0.119796
-0.043551 0.0619422 -0.119742
-0.0437517 0.061855 -0.119667
-0.0439523 0.0617538 -0.119574
-0.0441532 0.0616668 -0.119499
-0.0443543 0.061597 -0.119446
-0.0445555 0.0615235 -0.119388
-0.044757 0.0614738 -0.119361
-0.0449588 0.06146 -0.11938
-0.0519331 0.065898 -0.126288
-0.0521301 0.065935 -0.12637
-0.0523241 0.066135 -0.12666
-0.052521 0.0661623 -0.12673
-0.0527171 0.0662327 -0.126855
-0.0529128 0.0663139 -0.126994
-0.0530745 0.0680081 -0.129182
-0.0532693 0.0680642 -0.129289
-0.0534644 0.068101 -0.129371
-0.0536605 0.0680917 -0.129394
-0.0538558 0.0681138 -0.129458
-0.0540513 0.0681276 -0.12951
-0.0178748 0.0215407 -0.0640721
-0.0181695 0.0222048 -0.0649696
-0.0184449 0.0226654 -0.0656048
-0.0187239 0.0231732 -0.0663005
-0.0189908 0.0235542 -0.0668327
-0.0192577 0.0239404 -0.0673716
-0.0195139 0.024211 -0.0677615
-0.0197567 0.0243314 -0.0679576
-0.0199863 0.0243 -0.0679583
-0.0202182 0.0242961 -0.0679943
-0.0213367 0.0237726 -0.0675256
-0.021557 0.0236223 -0.0673732
-0.0217882 0.0236059 -0.0673933
-0.0220125 0.0235023 -0.0673012
-0.0222397 0.0234343 -0.0672548
-0.0224688 0.0233894 -0.0672382
-0.0226973 0.0233374 -0.0672124
-0.0229218 0.0232322 -0.0671182
-0.0235737 0.0226131 -0.0664456
-0.0237993 0.0225129 -0.066358
-0.0240244 0.0224056 -0.0662612
-0.0242497 0.0222986 -0.066165
-0.0244763 0.0222079 -0.0660896
-0.0247045 0.0221397 -0.0660433
-0.0249332 0.022077 -0.066004
-0.0251631 0.0220315 -0.0659869
-0.0253926 0.0219782 -0.0659596
-0.0256214 0.0219164 -0.0659216
-0.0258465 0.0217965 -0.0658089
-0.0260708 0.0216635 -0.0656794
-0.0263026 0.0216427 -0.065694
-0.026534 0.0216143 -0.0656989
-0.0274376 0.0248992 -0.0700413
-0.0276827 0.0251345 -0.0703843
-0.0279439 0.0256408 -0.0710753
-0.0281927 0.0259532 -0.0715171
-0.0284354 0.0261708 -0.0718373
-0.0286724 0.0262979 -0.0720412
-0.028909 0.0264228 -0.0722423
-0.0291389 0.0264321 -0.0722949
-0.0293873 0.0267711 -0.0727707
-0.0296317 0.0270486 -0.0731674
-0.0298825 0.0274497 -0.0737226
-0.0301494 0.028159 -0.0746731
-0.0304016 0.0286118 -0.0752944
-0.0306437 0.0288887 -0.0756898
-0.0308754 0.0289742 -0.0758399
-0.0311495 0.0298868 -0.0770504
-0.0314014 0.0303891 -0.0777347
-0.0316371 0.030581 -0.0780209
-0.0318795 0.0309161 -0.0784907
-0.0321379 0.0315917 -0.0793967
-0.0323688 0.0317136 -0.0795931
-0.0325913 0.0316616 -0.0795664
-0.0328311 0.0319808 -0.0800155
-0.0331123 0.03322 -0.0816431
-0.0343189 0.0353153 -0.0845254
-0.0345456 0.0354266 -0.0847075
-0.0347738 0.0355791 -0.0849423
-0.0350482 0.0368977 -0.0866698
-0.0352764 0.0370852 -0.0869493
-0.0354993 0.0371441 -0.0870639
-0.0357518 0.0379884 -0.0881839
-0.0359864 0.0383859 -0.0887316
-0.0362083 0.0384482 -0.0888505
-0.0364271 0.0384251 -0.0888601
-0.0366454 0.0383916 -0.0888564
-0.0394897 0.0619053 -0.119298
-0.0397076 0.0624854 -0.120076
-0.0399165 0.062753 -0.120453
-0.0401186 0.062771 -0.120512
-0.0403197 0.06275 -0.120522
-0.0405203 0.0627112 -0.120508
-0.0407208 0.0626633 -0.120483
-0.0409216 0.062632 -0.120479
-0.0411222 0.0625861 -0.120456
-0.0413227 0.0625357 -0.120428
-0.0415232 0.0624829 -0.120397
-0.041724 0.0624418 -0.12038
-0.0419243 0.0623776 -0.120334
-0.0421246 0.0623062 -0.120279
-0.0423248 0.0622248 -0.120212
-0.0425249 0.0621364 -0.120135
-0.0427256 0.0620734 -0.12009
-0.042926 0.0619895 -0.12002
-0.0431266 0.0619135 -0.119959
-0.0433265 0.0617841 -0.11983
-0.043527 0.0616858 -0.119741
-0.0437282 0.061635 -0.119712
-0.0439286 0.061521 -0.119603
-0.0441294 0.0614203 -0.11951
-0.0443307 0.0613612 -0.119471
-0.044532 0.0612925 -0.11942
-0.0447337 0.0612623 -0.119417
-0.0519122 0.065635 -0.126273
-0.052111 0.065572 -0.126228
-0.0523062 0.0657166 -0.126448
-0.0525009 0.0658716 -0.12668
-0.0526962 0.0659886 -0.126864
-0.0528921 0.0660607 -0.126991
-0.0530614 0.067402 -0.128729
-0.0532481 0.067849 -0.129332
-0.0534438 0.0678604 -0.129381
-0.0536409 0.0678108 -0.129354
-0.0538352 0.0678784 -0.129475
-0.0540292 0.067957 -0.12961
-0.0178281 0.0211231 -0.0639119
-0.018125 0.0218083 -0.0648359
-0.0184132 0.0224098 -0.0656518
-0.0186735 0.0227072 -0.0660761
-0.0189511 0.0232061 -0.0667597
-0.0192028 0.0234185 -0.0670744
-0.019476 0.0238827 -0.0677131
-0.0204026 0.0238427 -0.0678259
-0.020622 0.0236872 -0.0676669
-0.0208558 0.0237036 -0.0677291
-0.0210837 0.0236485 -0.0676992
-0.0213101 0.0235736 -0.067644
-0.0215323 0.0234467 -0.067522
-0.0217594 0.0233783 -0.0674751
-0.0219835 0.0232715 -0.0673789
-0.0222125 0.0232268 -0.0673625
-0.0224407 0.023171 -0.0673319
-0.0226691 0.0231165 -0.067303
-0.0228921 0.0229918 -0.0671839
-0.023769 0.0222637 -0.066413
-0.023996 0.0221805 -0.0663474
-0.0242213 0.0220743 -0.0662522
-0.0244425 0.0219063 -0.0660777
-0.0246742 0.0218876 -0.0660949
-0.0249051 0.0218549 -0.0660943
-0.0251329 0.0217795 -0.0660387
-0.0253637 0.0217458 -0.0660367
-0.0255927 0.0216842 -0.065999
-0.0258153 0.0215272 -0.0658388
-0.0260385 0.0213768 -0.065687
-0.0262724 0.0213872 -0.0657417
-0.026505 0.0213784 -0.0657717
-0.0274096 0.024673 -0.0701226
-0.0276535 0.0248881 -0.0704395
-0.0279115 0.0253418 -0.0710624
-0.0281502 0.0254852 -0.0712871
-0.0283945 0.0257262 -0.0716371
-0.0286364 0.0259337 -0.0719439
-0.0288804 0.0261828 -0.072304
-0.0291124 0.0262299 -0.0724051
-0.0293631 0.0266093 -0.0729322
-0.0296109 0.0269459 -0.0734044
-0.0298564 0.0272513 -0.0738364
-0.0301043 0.0276099 -0.0743365
-0.0303591 0.0281078 -0.0750151
-0.0306145 0.0286318 -0.075727
-0.0308482 0.028753 -0.0759226
-0.0310895 0.0290285 -0.076316
-0.0313676 0.0300359 -0.0776467
-0.031605 0.0302614 -0.0779757
-0.031839 0.0304223 -0.0782219
-0.0320987 0.0311198 -0.0791553
-0.0323383 0.0314184 -0.0795777
-0.0325618 0.0313866 -0.079577
-0.0328253 0.032215 -0.0806774
-0.0330728 0.0327212 -0.0813654
-0.0333119 0.033056 -0.0818336
-0.0340394 0.0343738 -0.0836393
-0.0342909 0.0350597 -0.0845564
-0.0345192 0.0352079 -0.0847856
-0.035253 0.0369402 -0.0871196
-0.035481 0.0371303 -0.087402
-0.0357202 0.0376263 -0.0880754
-0.0359475 0.0378209 -0.0883633
-0.0361809 0.038193 -0.0888782
-0.0364019 0.0382296 -0.0889642
-0.0366148 0.0380405 -0.0887617
-0.0394594 0.0614701 -0.119069
-0.0396782 0.0620738 -0.119875
-0.0398904 0.0624587 -0.120403
-0.0400942 0.0625394 -0.120542
-0.0402956 0.0625311 -0.120567
-0.0404966 0.0625044 -0.120569
-0.0406972 0.0624619 -0.120551
-0.0408977 0.0624154 -0.120528
-0.0410988 0.0623898 -0.120531
-0.041299 0.0623273 -0.120487
-0.0414996 0.0622751 -0.120457
-0.0417005 0.0622392 -0.120447
-0.041901 0.0621814 -0.120409
-0.0421013 0.0621118 -0.120357
-0.0423012 0.0620127 -0.120266
-0.0425013 0.0619207 -0.120185
-0.0427014 0.061825 -0.120099
-0.0429019 0.0617445 -0.120033
-0.0431022 0.0616461 -0.119943
-0.0433024 0.0615316 -0.119833
-0.0435036 0.0614785 -0.119802
-0.0437039 0.0613518 -0.119676
-0.0439048 0.0612661 -0.119603
-0.0441052 0.0611285 -0.119464
-0.0443069 0.0610999 -0.119464
-0.0445084 0.0610496 -0.119436
-0.0447103 0.0610354 -0.119454
-0.0518923 0.0653144 -0.126185
-0.0520897 0.0653369 -0.126249
-0.0522877 0.06533 -0.126276
-0.0524812 0.0655602 -0.126604
-0.0526743 0.0657932 -0.126935
-0.0528701 0.0658699 -0.127067
-0.0530399 0.0671985 -0.128788
-0.0532344 0.0672813 -0.128928
-0.0534253 0.0675249 -0.129272
-0.0536197 0.0675966 -0.129398
-0.0538148 0.0676363 -0.129484
-0.0540072 0.067781 -0.129703
-0.0541976 0.0679945 -0.130009
-0.0543779 0.0685915 -0.1308
-0.0177969 0.0208746 -0.0639698
