0.0554725 0.0720908 0.107999
0.0557605 0.0721882 0.107946
0.0559906 0.0722361 0.107858
0.0562085 0.0722736 0.107763
0.0564126 0.0722994 0.107658
0.0566135 0.0723224 0.107552
0.0567947 0.0723286 0.107434
0.0569874 0.0723447 0.107323
0.0571593 0.0723429 0.107199
0.0573215 0.0723328 0.107069
0.05749 0.0723282 0.106942
0.0576633 0.0723277 0.106819
0.0578305 0.072322 0.106692
0.0580125 0.0723291 0.106575
0.0582003 0.0723412 0.106461
0.0583869 0.0723523 0.106347
0.0585934 0.0723807 0.106245
0.0588169 0.0724239 0.106154
0.0590568 0.0724813 0.106074
0.0592361 0.0724863 0.105955
0.0594779 0.0725455 0.105876
0.0596802 0.0725706 0.105772
0.0598971 0.0726084 0.105678
0.0601308 0.0726608 0.105594
0.0603518 0.0727023 0.105503
0.0605799 0.07275 0.105416
0.0607848 0.0727776 0.105314
0.0609827 0.0727993 0.105208
0.0611961 0.0728344 0.105112
0.0613994 0.0728609 0.10501
0.0616153 0.0728983 0.104916
0.0618243 0.0729299 0.104817
0.0620398 0.0729672 0.104723
0.0622561 0.0730051 0.104629
0.0624754 0.0730458 0.104538
0.0626712 0.0730661 0.104431
0.0628806 0.0730984 0.104333
0.063085 0.0731263 0.104232
0.0632768 0.0731432 0.104123
0.0634731 0.0731641 0.104017
0.063673 0.0731882 0.103914
0.0638596 0.0732007 0.103801
0.0640689 0.0732331 0.103704
0.06425 0.073241 0.103589
0.0644663 0.0732797 0.103496
0.0646513 0.0732909 0.103383
0.0648867 0.0733466 0.103303
0.0650861 0.0733707 0.1032
0.0652741 0.0733848 0.10309
0.0658803 0.0734645 0.102786
0.0471547 0.0706158 0.111993
0.0473127 0.0706002 0.111857
0.047488 0.0705992 0.111731
0.0476532 0.0705897 0.1116
0.0478207 0.0705823 0.111469
0.0480181 0.0705999 0.111357
0.048179 0.070587 0.111223
0.0483377 0.0705721 0.111088
0.0484748 0.0705391 0.11094
0.0486136 0.0705075 0.110793
0.0487406 0.0704658 0.110638
0.0488544 0.0704131 0.110476
0.0489819 0.0703719 0.110322
0.0490594 0.0702884 0.110138
0.0491137 0.0701852 0.109939
0.0492301 0.0701345 0.109778
0.0493296 0.0700695 0.109607
0.0494296 0.0700048 0.109436
0.0495332 0.0699431 0.109267
0.0497182 0.0699505 0.109148
0.0505146 0.0691276 0.107308
0.0506479 0.0690908 0.107157
0.0507843 0.0690565 0.107008
0.0509229 0.0690242 0.10686
0.0509339 0.0688828 0.106633
0.05097 0.0687627 0.106421
0.0548577 0.0717895 0.108367
0.0550488 0.0718037 0.108254
0.0552628 0.0718376 0.108155
0.0555038 0.0718947 0.108074
0.0558005 0.0719998 0.108027
0.056048 0.0720626 0.10795
0.0562909 0.0721217 0.10787
0.0565195 0.0721686 0.107781
0.0567054 0.0721788 0.107665
0.0568963 0.0721933 0.107553
0.0570783 0.0722003 0.107435
0.0572427 0.072192 0.107306
0.0573958 0.0721741 0.10717
0.057555 0.0721615 0.107038
0.0577254 0.0721585 0.106913
0.0578935 0.0721536 0.106787
0.0580638 0.0721506 0.106662
0.0582477 0.0721594 0.106546
0.0584267 0.0721639 0.106427
0.0586074 0.07217 0.106309
0.0588198 0.0722036 0.106211
0.0590021 0.0722112 0.106094
0.0592305 0.0722587 0.106006
0.0594621 0.0723091 0.105921
0.0596845 0.0723517 0.10583
0.0598907 0.0723801 0.105728
0.0601149 0.0724244 0.105639
0.060351 0.072479 0.105557
0.0605476 0.0724993 0.105449
0.0607772 0.0725485 0.105363
0.0609778 0.0725725 0.105259
0.061179 0.0725971 0.105155
0.061391 0.0726311 0.105058
0.0616153 0.0726759 0.104969
0.0618048 0.0726904 0.104858
0.0620285 0.0727349 0.104769
0.0622578 0.0727842 0.104684
0.062454 0.0728048 0.104577
0.0626548 0.0728294 0.104474
0.0628748 0.0728709 0.104383
0.063082 0.0729013 0.104284
0.063286 0.0729289 0.104183
0.063486 0.0729531 0.104079
0.063673 0.0729659 0.103967
0.0638708 0.0729882 0.103862
0.064077 0.073018 0.103763
0.0642743 0.07304 0.103658
0.0644702 0.0730608 0.103552
0.064664 0.0730799 0.103445
0.0648612 0.0731019 0.10334
0.0650768 0.0731402 0.103247
0.0652509 0.0731421 0.103127
0.0654644 0.0731787 0.103033
0.0656846 0.0732213 0.102944
0.0658869 0.0732482 0.102843
0.0660837 0.0732702 0.102738
0.0470181 0.0702772 0.111969
0.0472927 0.0703596 0.111902
0.0474745 0.070364 0.111781
0.0476217 0.0703394 0.111638
0.0477885 0.0703313 0.111508
0.0479838 0.0703472 0.111394
0.0481591 0.0703464 0.111269
0.048326 0.0703384 0.111138
0.0484722 0.070313 0.110996
0.0486061 0.0702772 0.110845
0.0487355 0.0702375 0.110692
0.048851 0.0701862 0.110531
0.0489782 0.0701447 0.110377
0.0490643 0.0700684 0.110198
0.0491459 0.0699883 0.110016
0.0492452 0.069923 0.109844
0.0493478 0.0698606 0.109675
0.0494289 0.0697799 0.109493
0.0495655 0.0697462 0.109344
0.0497066 0.0697162 0.109198
0.050487 0.0688788 0.107348
0.0506568 0.0688731 0.107219
0.0507841 0.0688311 0.107064
0.0508617 0.0687466 0.106878
0.0509429 0.0686651 0.106695
0.0509988 0.0685619 0.106495
0.0548571 0.0715659 0.108422
0.0550628 0.0715927 0.108318
0.0552604 0.0716125 0.108209
0.0555222 0.0716875 0.108141
0.055911 0.0718717 0.108151
0.0562839 0.0720425 0.108152
0.0565848 0.0721516 0.108109
0.0567341 0.0721304 0.10797
0.0568543 0.0720841 0.107814
0.0570212 0.0720781 0.107687
0.0571798 0.0720649 0.107554
0.0573235 0.0720389 0.107412
0.0574736 0.0720184 0.107274
0.0576343 0.0720071 0.107143
0.0577956 0.0719963 0.107013
0.0579529 0.071982 0.10688
0.0581168 0.0719735 0.106751
0.0582884 0.0719717 0.106627
0.0584619 0.0719715 0.106504
0.0586407 0.071976 0.106384
0.0588231 0.0719836 0.106267
0.0590063 0.0719919 0.106151
0.0592442 0.0720478 0.106069
0.0594515 0.0720771 0.105968
0.0596518 0.0721005 0.105863
0.0598445 0.0721173 0.105753
0.0600719 0.0721643 0.105665
0.0602806 0.0721951 0.105566
0.0605207 0.0722532 0.105486
0.0607499 0.0723021 0.1054
0.0609617 0.0723359 0.105303
0.0611729 0.0723691 0.105205
0.0613884 0.0724062 0.10511
0.0615744 0.0724177 0.104997
0.0617914 0.0724562 0.104903
0.0620386 0.0725212 0.104829
0.0622341 0.072541 0.104722
0.0624404 0.0725704 0.104622
0.0626614 0.0726127 0.104532
0.0628612 0.0726365 0.104428
0.0630643 0.0726634 0.104326
0.0632743 0.0726963 0.104228
0.0634791 0.0727246 0.104128
0.0636784 0.0727482 0.104024
0.0638888 0.0727817 0.103927
0.0640927 0.0728094 0.103826
0.0642774 0.0728204 0.103713
0.064483 0.0728498 0.103613
0.0646653 0.0728586 0.103498
0.0648773 0.0728938 0.103403
0.0650713 0.0729132 0.103296
0.0652607 0.0729285 0.103186
0.0654623 0.0729546 0.103085
0.0656912 0.0730049 0.103001
0.0658987 0.0730363 0.102903
0.0660686 0.0730347 0.102781
0.0666707 0.0731115 0.102475
0.0470013 0.0700391 0.112017
0.0471819 0.0700425 0.111894
0.0474049 0.0700816 0.111797
0.0476011 0.0700981 0.111684
0.0477905 0.0701091 0.111567
0.0479689 0.0701107 0.111443
0.0481332 0.0701006 0.111311
0.0483038 0.0700957 0.111182
0.0484555 0.0700749 0.111043
0.0486036 0.0700511 0.110901
0.0487276 0.0700069 0.110745
0.0488655 0.0699744 0.110597
0.0489886 0.0699294 0.11044
0.0490883 0.0698645 0.110269
0.049151 0.0697683 0.110076
0.0492493 0.0697022 0.109904
0.0493547 0.0696421 0.109736
0.0494564 0.0695787 0.109566
0.0495952 0.0695469 0.109419
0.0496952 0.069482 0.109248
0.0506295 0.0686245 0.107259
0.0507484 0.0685753 0.107099
0.0508604 0.0685201 0.106934
0.0509131 0.0684141 0.106733
0.0510328 0.0683654 0.106573
0.0548327 0.0713219 0.108463
0.0550425 0.0713522 0.108361
0.0552652 0.0713936 0.108268
0.0555185 0.0714613 0.108194
0.0562324 0.0719251 0.108407
0.0564886 0.0719958 0.108336
0.0567028 0.0720304 0.108238
0.0568489 0.0720066 0.108098
0.0569708 0.0719617 0.107942
0.0571255 0.0719453 0.107807
0.0572684 0.0719186 0.107665
0.0574023 0.0718841 0.107517
0.0575466 0.0718587 0.107376
0.0577026 0.0718433 0.107241
0.0578582 0.0718276 0.107107
0.0580087 0.0718074 0.10697
0.0581668 0.0717939 0.106837
0.0583311 0.0717858 0.106708
0.0584969 0.071779 0.106581
0.058669 0.0717777 0.106457
0.0588428 0.0717777 0.106335
0.0590272 0.0717872 0.106219
0.0592107 0.0717958 0.106103
0.0594467 0.0718501 0.10602
0.0596467 0.0718732 0.105914
0.0598393 0.0718899 0.105804
0.0600492 0.0719217 0.105705
0.0602812 0.0719728 0.10562
0.0604798 0.071995 0.105514
0.0606909 0.072028 0.105416
0.0609175 0.0720746 0.105328
0.0611526 0.0721287 0.105246
0.0613467 0.0721471 0.105138
0.061566 0.0721876 0.105045
0.0617801 0.0722237 0.10495
0.0619777 0.0722452 0.104844
0.0622139 0.0723007 0.104763
0.0623973 0.0723101 0.104648
0.062631 0.0723636 0.104566
0.0628484 0.0724028 0.104473
0.0630366 0.0724166 0.104361
0.0632661 0.0724665 0.104276
0.0634444 0.0724716 0.104159
0.0636822 0.0725291 0.10408
0.0638724 0.0725448 0.10397
0.0640647 0.0725623 0.103861
0.0642691 0.0725906 0.103761
0.0644839 0.0726281 0.103667
0.0646842 0.0726528 0.103564
0.0648816 0.0726752 0.103459
0.0650633 0.0726836 0.103344
0.0652646 0.0727095 0.103242
0.0654644 0.072734 0.103139
0.0656859 0.0727778 0.10305
0.0659063 0.0728208 0.102961
0.0660807 0.072823 0.102842
0.066262 0.0728314 0.102727
0.0666574 0.0728774 0.102519
0.066873 0.0729164 0.102427
0.0470687 0.0698718 0.112115
0.0472498 0.0698756 0.111992
0.0474261 0.0698754 0.111867
0.0476015 0.0698745 0.111742
0.0477846 0.0698801 0.111621
0.047958 0.0698775 0.111494
0.0481247 0.0698693 0.111363
0.0482849 0.0698557 0.111229
0.0484671 0.0698606 0.111107
0.048599 0.0698231 0.110956
0.0487279 0.069783 0.110802
0.0488572 0.0697432 0.110649
0.0489885 0.0697051 0.110497
0.0491039 0.0696535 0.110336
0.0492099 0.069594 0.110169
0.0492766 0.0695009 0.109978
0.0493757 0.0694354 0.109806
0.0494632 0.06936 0.109627
0.0495644 0.0692962 0.109457
0.0497013 0.0692627 0.109308
0.0506295 0.0683991 0.107316
0.0507461 0.0683478 0.107154
0.0508323 0.0682705 0.106973
0.0509359 0.0682081 0.106803
0.0510261 0.0681341 0.106625
0.05132 0.0682347 0.106573
0.0550398 0.0711266 0.108416
0.0552849 0.0711873 0.108336
0.0555464 0.0712622 0.108267
0.0564124 0.0718572 0.108575
0.0566095 0.0718771 0.108466
0.0567618 0.0718586 0.10833
0.0569158 0.0718414 0.108195
0.0570509 0.0718081 0.108047
0.0571922 0.07178 0.107904
0.0573293 0.0717483 0.107758
0.057469 0.0717189 0.107614
0.0576153 0.0716951 0.107474
0.0577628 0.0716724 0.107334
0.0579103 0.0716497 0.107195
0.0580629 0.0716314 0.107059
0.0582158 0.0716133 0.106923
0.0583722 0.0715985 0.106789
0.0585309 0.0715854 0.106657
0.0586967 0.0715787 0.106529
0.0588628 0.0715722 0.106402
0.0590332 0.0715694 0.106277
0.0592202 0.0715811 0.106163
0.0594182 0.0716023 0.106056
0.0596323 0.0716377 0.10596
0.0598314 0.0716601 0.105853
0.0600426 0.071693 0.105755
0.0602342 0.0717089 0.105644
0.0604533 0.0717489 0.105551
0.0606549 0.0717737 0.105447
0.0609291 0.0718619 0.10539
0.0611058 0.0718651 0.10527
0.0613272 0.0719073 0.105179
0.0615471 0.0719483 0.105087
0.0617406 0.0719663 0.104978
0.0619786 0.0720234 0.104898
0.0621915 0.0720585 0.104802
0.0623913 0.0720822 0.104698
0.0626099 0.0721224 0.104606
0.0628124 0.0721486 0.104503
0.0630299 0.072188 0.10441
0.063232 0.0722139 0.104308
0.0634349 0.0722407 0.104206
0.0636772 0.0723021 0.10413
0.0638431 0.0722964 0.104004
0.0640285 0.0723079 0.103891
0.0642637 0.0723633 0.10381
0.0644934 0.0724139 0.103726
0.0646796 0.0724263 0.103614
0.0648711 0.0724434 0.103505
0.0650561 0.0724548 0.103392
0.0652486 0.0724729 0.103284
0.0654636 0.0725109 0.103191
0.0656766 0.0725471 0.103097
0.0658736 0.0725693 0.102992
0.066062 0.072584 0.102882
0.0662583 0.0726057 0.102777
0.0664416 0.0726159 0.102663
0.0666446 0.0726437 0.102563
0.0668243 0.0726508 0.102447
0.0470945 0.0696694 0.112188
0.0472696 0.0696682 0.112062
0.0474228 0.0696485 0.111923
0.0475835 0.0696352 0.111788
0.0477674 0.0696414 0.111668
0.0479428 0.0696406 0.111542
0.0481029 0.0696268 0.111408
0.0482859 0.0696324 0.111287
0.0484365 0.0696106 0.111146
0.0485888 0.0695903 0.111007
0.0487303 0.0695608 0.110861
0.0488531 0.0695154 0.110704
0.0489877 0.0694801 0.110554
0.049109 0.0694335 0.110396
0.0492189 0.0693772 0.110231
0.0492463 0.0692508 0.110016
0.049368 0.0692043 0.109859
0.0494687 0.06914 0.109688
0.0495639 0.0690711 0.109514
0.0507236 0.068103 0.107197
0.0508609 0.0680694 0.107047
0.0509281 0.0679757 0.106855
0.0510212 0.0679041 0.106678
0.0512136 0.0679178 0.106563
0.0515043 0.0680159 0.106509
0.0553159 0.0709907 0.108411
0.0562548 0.0716486 0.108764
0.0565267 0.0717329 0.108702
0.0566851 0.0717196 0.108569
0.0568203 0.0716863 0.108422
0.0569635 0.0716598 0.10828
0.0571184 0.0716435 0.108145
0.057265 0.07162 0.108005
0.0574114 0.0715964 0.107865
0.057538 0.0715556 0.107712
0.0576723 0.0715215 0.107565
0.0578193 0.0714983 0.107425
0.05796 0.0714697 0.107281
0.0581124 0.0714513 0.107145
0.0582603 0.071429 0.107006
0.05841 0.0714082 0.106868
0.0585579 0.0713858 0.106729
0.05872 0.0713758 0.106599
0.0588782 0.0713625 0.106466
0.0590496 0.0713605 0.106342
0.0592173 0.0713555 0.106216
0.0594122 0.071374 0.106107
0.0596139 0.0713986 0.106002
0.0598127 0.0714207 0.105896
0.0600096 0.0714413 0.105788
0.0602107 0.0714655 0.105684
0.0604233 0.0714998 0.105586
0.0606481 0.0715448 0.105497
0.0608926 0.0716071 0.105421
0.0610784 0.0716182 0.105306
0.0613008 0.0716614 0.105216
0.061516 0.0716982 0.105121
0.0617185 0.0717241 0.105018
0.0619438 0.0717701 0.10493
0.0621984 0.0718417 0.10486
0.0623909 0.071859 0.104751
0.0625845 0.0718773 0.104643
0.0628165 0.0719295 0.104559
0.0629989 0.071938 0.104444
0.0632098 0.0719718 0.104347
0.0634252 0.0720095 0.104253
0.0636299 0.0720378 0.104152
0.0638219 0.0720551 0.104043
0.0640277 0.0720845 0.103943
0.0642276 0.0721089 0.10384
0.0644588 0.0721608 0.103757
0.0646544 0.0721815 0.103651
0.0648604 0.0722113 0.103551
0.0650554 0.0722316 0.103445
0.0652468 0.0722487 0.103336
0.0654593 0.0722845 0.103241
0.0656617 0.0723114 0.10314
0.0658647 0.0723389 0.103039
0.0660525 0.072353 0.102928
0.0662435 0.0723701 0.10282
0.0664445 0.072396 0.102718
0.066623 0.072402 0.102601
0.0668254 0.0724293 0.1025
0.0471226 0.069469 0.112262
0.0472544 0.0694312 0.112111
0.0474197 0.0694218 0.111979
0.0475925 0.0694186 0.111852
0.0477681 0.0694178 0.111726
0.0479199 0.069397 0.111586
0.0480833 0.069386 0.111453
0.0482684 0.0693934 0.111334
0.0484106 0.0693644 0.111188
0.0485769 0.0693559 0.111057
0.0487238 0.069331 0.110915
0.048851 0.0692894 0.11076
0.0490018 0.0692677 0.11062
0.0491083 0.0692085 0.110453
0.0492079 0.0691434 0.110282
0.0492303 0.0690125 0.110064
0.0493396 0.0689556 0.109899
0.0494507 0.0689001 0.109734
0.0495826 0.0688622 0.109582
0.0496709 0.0687872 0.109404
0.050551 0.0678808 0.107381
0.0506767 0.0678372 0.107224
0.0507992 0.0677909 0.107066
0.0509371 0.0677576 0.106917
0.0510409 0.0676952 0.106747
0.0512116 0.0676902 0.106619
0.0514873 0.0677755 0.106555
0.056367 0.0715224 0.108889
0.0565779 0.0715543 0.108789
0.0567287 0.0715344 0.108652
0.0568675 0.0715042 0.108507
0.0570082 0.0714756 0.108363
0.0571352 0.0714352 0.108211
0.0572482 0.0713827 0.10805
0.0574382 0.0713966 0.107937
0.0575627 0.071354 0.107783
0.057675 0.0713008 0.107621
0.0578605 0.071311 0.107506
0.0580107 0.0712907 0.107368
0.0581521 0.0712627 0.107225
0.0582998 0.0712402 0.107086
0.0584451 0.0712155 0.106945
0.0585941 0.0711941 0.106807
0.0587436 0.0711732 0.106669
0.0589043 0.071162 0.106538
0.0590572 0.071144 0.106402
0.0592307 0.0711439 0.106279
0.0594147 0.071153 0.106163
0.0596111 0.071173 0.106055
0.059799 0.0711857 0.105942
0.0599977 0.0712077 0.105835
0.0602023 0.071235 0.105733
0.0604105 0.0712655 0.105633
0.0606179 0.0712953 0.105532
0.0608428 0.0713405 0.105443
0.061039 0.0713607 0.105335
0.0612726 0.0714137 0.105252
0.061487 0.0714499 0.105156
0.0617187 0.0715013 0.105072
0.0619082 0.0715159 0.10496
0.0621565 0.0715821 0.104887
0.0623314 0.0715839 0.104766
0.062545 0.0716198 0.104671
0.0627728 0.0716682 0.104585
0.0629764 0.0716954 0.104483
0.063192 0.0717333 0.104389
0.0633963 0.0717612 0.104288
0.0635987 0.0717876 0.104185
0.0638122 0.0718237 0.10409
0.0640051 0.0718418 0.103982
0.0642229 0.0718819 0.10389
0.0644378 0.0719195 0.103796
0.0646399 0.071946 0.103694
0.0648292 0.0719611 0.103584
0.0650472 0.0720017 0.103492
0.0652476 0.0720267 0.103389
0.0654545 0.0720575 0.103291
0.0656598 0.0720871 0.103192
0.0658412 0.0720955 0.103076
0.0660457 0.0721244 0.102977
0.0662558 0.0721584 0.102881
0.0664277 0.0721585 0.102759
0.0666033 0.0721618 0.102641
0.0667919 0.0721769 0.102531
0.0669619 0.0721754 0.102408
0.0471629 0.0692787 0.112344
0.047289 0.0692362 0.112189
0.0474337 0.0692093 0.112045
0.0475999 0.0692005 0.111914
0.047757 0.0691842 0.111777
0.0479212 0.0691738 0.111645
0.048089 0.0691665 0.111515
0.0482617 0.0691634 0.111387
0.0484132 0.0691423 0.111247
0.0485714 0.0691269 0.111111
0.0487059 0.0690914 0.110961
0.048838 0.0690539 0.11081
0.0489697 0.069016 0.110658
0.0491136 0.0689885 0.110514
0.0492118 0.0689221 0.110342
0.0492379 0.0687943 0.110126
0.0493542 0.0687433 0.109965
0.0494694 0.0686912 0.109803
0.0495337 0.0685957 0.10961
0.0496879 0.0685768 0.109471
0.0506732 0.0676084 0.107279
0.0508016 0.0675671 0.107124
0.0509095 0.0675081 0.106957
0.0510273 0.0674576 0.106795
0.0511325 0.0673963 0.106626
0.0514545 0.0675215 0.106591
0.0564923 0.0714077 0.109022
0.0566537 0.0713969 0.108892
0.0567707 0.0713479 0.108733
0.056903 0.071312 0.108584
0.0570453 0.0712848 0.108442
0.0571346 0.0712118 0.108266
0.0572294 0.0711434 0.108093
0.0572768 0.0710341 0.107891
0.0573857 0.0709778 0.107727
0.0575138 0.0709382 0.107575
0.0576804 0.0709319 0.107448
0.0580291 0.0710836 0.107435
0.0581856 0.0710686 0.107301
0.0583214 0.0710358 0.107154
0.0584715 0.0710153 0.107017
0.0586279 0.0710003 0.106883
0.058764 0.0709677 0.106736
0.058908 0.0709419 0.106595
0.0590653 0.0709278 0.106462
0.059241 0.0709297 0.10634
0.0594045 0.0709209 0.106211
0.0595949 0.0709357 0.106099
0.0597864 0.0709515 0.105988
0.0600159 0.0710004 0.105901
0.0602004 0.0710101 0.105786
0.0603991 0.0710323 0.10568
0.0606057 0.0710615 0.105578
0.060828 0.0711044 0.105487
0.0610072 0.0711097 0.105369
0.0612345 0.0711572 0.105281
0.0614608 0.0712038 0.105193
0.0616882 0.0712516 0.105106
0.0618901 0.071277 0.105003
0.0620954 0.0713054 0.104901
0.0623078 0.0713402 0.104805
0.062509 0.0713651 0.104701
0.0627356 0.0714125 0.104614
0.0629772 0.0714732 0.104537
0.0631525 0.0714756 0.104417
0.0633588 0.0715053 0.104317
0.0635728 0.0715419 0.104222
0.0637843 0.0715763 0.104125
0.0639984 0.0716131 0.104031
0.0642055 0.0716438 0.103932
0.0644063 0.0716689 0.103829
0.0646121 0.0716986 0.103729
0.064843 0.0717505 0.103646
0.0650403 0.0717728 0.103541
0.0652317 0.0717898 0.103432
0.0654373 0.0718196 0.103333
0.0656431 0.0718495 0.103233
0.0658305 0.0718633 0.103122
0.0660567 0.0719115 0.103037
0.0662401 0.0719217 0.102923
0.0664105 0.0719204 0.102801
0.0666024 0.0719383 0.102693
0.0667801 0.0719437 0.102575
0.066939 0.0719323 0.102446
0.0671343 0.0719534 0.10234
0.0473009 0.0690219 0.112254
0.0474534 0.0690016 0.112115
0.0475913 0.0689689 0.111966
0.0477257 0.0689333 0.111816
0.0479167 0.0689456 0.1117
0.0480909 0.0689437 0.111573
0.0482205 0.068904 0.11142
0.0483903 0.0688984 0.111291
0.0485569 0.0688901 0.11116
0.0487007 0.0688625 0.111016
0.0488353 0.0688271 0.110866
0.0489796 0.0687999 0.110721
0.0491154 0.0687654 0.110572
0.0491963 0.0686843 0.110389
0.0492407 0.068572 0.110185
0.049321 0.0684902 0.110002
0.0494343 0.0684364 0.109838
0.0495241 0.0683625 0.109661
0.0495968 0.0682741 0.109473
0.0498542 0.066983 0.107299
0.0504767 0.0673655 0.107448
0.0506541 0.0673662 0.107324
0.0507694 0.0673135 0.107161
0.0509224 0.0672933 0.107021
0.0510494 0.0672507 0.106866
0.0511496 0.067185 0.106693
0.0514124 0.0672593 0.106622
0.0517029 0.0673575 0.106568
0.0565754 0.0712565 0.10913
0.0566992 0.0712134 0.108975
0.0568084 0.0711576 0.108812
0.0569272 0.07111 0.108655
0.0570691 0.0710824 0.108512
0.0571605 0.0710112 0.108337
0.0572311 0.0709218 0.108149
0.0572971 0.0708285 0.107959
0.057442 0.0708034 0.107818
0.0575859 0.0707775 0.107676
0.0577926 0.070806 0.107573
0.0580478 0.0708766 0.107502
0.0582033 0.0708609 0.107367
0.0583532 0.0708402 0.107229
0.0584991 0.0708161 0.107089
0.0586215 0.0707715 0.106934
0.0587702 0.0707499 0.106795
0.058919 0.0707283 0.106657
0.0590793 0.0707166 0.106525
0.0592325 0.0706989 0.106389
0.0594022 0.0706956 0.106264
0.0595861 0.0707047 0.106148
0.0597669 0.070711 0.10603
0.0599826 0.0707479 0.105934
0.0601925 0.0707799 0.105835
0.0603915 0.0708024 0.105729
0.0605952 0.070829 0.105626
0.0607977 0.0708547 0.105522
0.0610027 0.0708825 0.10542
0.0612175 0.070919 0.105325
0.0614401 0.0709625 0.105234
0.0616602 0.0710038 0.105142
0.0618737 0.0710394 0.105046
0.0621088 0.0710941 0.104964
0.0622951 0.0711059 0.10485
0.0624858 0.0711217 0.10474
0.0627104 0.0711672 0.104651
0.0629485 0.0712249 0.104572
0.0631539 0.0712538 0.104471
0.0633577 0.0712813 0.104369
0.0635674 0.071314 0.104272
0.063791 0.0713593 0.104183
0.0639698 0.0713648 0.104066
0.0641813 0.0713994 0.103969
0.06439 0.0714316 0.103871
0.0646075 0.0714716 0.103779
0.0648314 0.0715174 0.103691
0.0650313 0.0715419 0.103588
0.0652284 0.0715641 0.103483
0.0654426 0.0716015 0.103389
0.0656292 0.0716143 0.103277
0.0658286 0.0716387 0.103174
0.0660208 0.0716567 0.103066
0.0662026 0.0716656 0.102951
0.0663792 0.0716698 0.102833
0.0665476 0.0716669 0.102709
0.0667404 0.0716855 0.102602
0.0668944 0.0716698 0.102468
0.0670722 0.0716752 0.102351
0.0473008 0.0687975 0.112312
0.0474396 0.0687655 0.112164
0.0475743 0.0687301 0.112014
0.0477083 0.0686941 0.111863
0.0479 0.0687069 0.111747
0.0480475 0.0686824 0.111605
0.0482314 0.0686887 0.111484
0.0484109 0.0686914 0.111361
0.0485575 0.0686661 0.111218
0.048699 0.0686365 0.111072
0.0488407 0.068607 0.110926
0.0489885 0.0685828 0.110784
0.0491175 0.0685425 0.110631
0.0492055 0.0684674 0.110452
0.0492823 0.0683825 0.110267
0.0493142 0.0682594 0.110055
0.0494308 0.0682084 0.109894
0.0495285 0.0681413 0.109721
0.0495797 0.0680344 0.10952
0.0499149 0.0668088 0.107393
0.0504999 0.0671595 0.107519
0.0506536 0.0671398 0.10738
0.0507899 0.0671052 0.10723
0.0509182 0.0670637 0.107075
0.0510333 0.0670108 0.106912
0.0511689 0.0669754 0.106762
0.0514124 0.0670332 0.106678
0.0565371 0.0710006 0.109161
0.0567429 0.0710283 0.109058
0.0568263 0.0709501 0.108879
0.0569606 0.070916 0.108731
0.0570843 0.0708726 0.108577
0.0572125 0.0708332 0.108425
0.0574646 0.0705998 0.107887
0.0576188 0.0705827 0.107752
0.0578565 0.0706382 0.107669
0.0580521 0.0706571 0.107559
0.0581929 0.0706286 0.107416
0.0583583 0.0706214 0.107288
0.0584905 0.0705853 0.107139
0.0586271 0.0705531 0.106992
0.0587518 0.0705104 0.106838
0.0589191 0.0705049 0.106711
0.0590662 0.0704819 0.106572
0.0592205 0.070465 0.106437
0.059383 0.0704553 0.106307
0.0595677 0.0704651 0.106191
0.0597869 0.0705051 0.106097
0.0599574 0.0705025 0.105973
0.0601619 0.0705297 0.10587
0.0603891 0.0705769 0.105782
0.0605798 0.0705921 0.10567
0.0607964 0.0706301 0.105576
0.0609951 0.0706525 0.10547
0.0612184 0.0706965 0.105379
0.0614043 0.0707078 0.105265
0.0616249 0.0707495 0.105173
0.0618746 0.070817 0.105101
0.0620772 0.0708431 0.104997
0.0622781 0.0708677 0.104893
0.0624795 0.0708929 0.10479
0.0626903 0.0709264 0.104692
0.0629172 0.0709742 0.104605
0.0631226 0.0710031 0.104504
0.0633413 0.0710437 0.104412
0.063549 0.0710748 0.104313
0.0637567 0.0711058 0.104214
0.0639644 0.071137 0.104115
0.0641812 0.0711763 0.104023
0.0643875 0.0712064 0.103923
0.0645971 0.0712394 0.103826
0.0647971 0.071264 0.103722
0.0650159 0.0713053 0.103631
0.0652165 0.0713305 0.103528
0.0654248 0.0713627 0.10343
0.0656168 0.0713805 0.103322
0.0658269 0.0714143 0.103225
0.0660114 0.0714255 0.103112
0.0661837 0.0714258 0.102991
0.0663563 0.0714266 0.10287
0.0665409 0.0714379 0.102757
0.0666628 0.0713935 0.102603
0.0668177 0.0713784 0.10247
0.0669941 0.0713826 0.102352
0.0671576 0.0713753 0.102225
0.0472399 0.0685214 0.112333
0.0473988 0.0685064 0.112198
0.0475548 0.068489 0.11206
0.047709 0.0684701 0.111922
0.0478446 0.0684354 0.111772
0.0480088 0.068425 0.111639
0.0482348 0.068467 0.111544
0.0483825 0.0684426 0.111402
0.0485472 0.0684327 0.111269
0.048687 0.0684016 0.111122
0.0488309 0.068374 0.110978
0.0489679 0.0683405 0.110829
0.0490965 0.0682998 0.110675
0.0491852 0.0682252 0.110497
0.049282 0.0681574 0.110324
0.0493038 0.0680255 0.110106
0.049407 0.067963 0.109936
0.0494958 0.0678882 0.109758
0.0495798 0.0678093 0.109577
0.0500565 0.0667042 0.107537
0.050315 0.0667745 0.107462
0.0506419 0.0669037 0.10743
0.0507509 0.0668456 0.107263
0.0509034 0.0668248 0.107123
0.0510163 0.06677 0.106958
0.0511298 0.0667156 0.106794
0.051299 0.0667092 0.106664
0.0548026 0.06943 0.108371
0.0568278 0.0707285 0.108935
0.0569829 0.0707122 0.1088
0.0571455 0.0707026 0.10867
0.0572241 0.0706201 0.108488
0.0572809 0.0705186 0.108291
0.0573517 0.0704293 0.108104
0.0574906 0.070399 0.107959
0.0576822 0.0704144 0.107847
0.0579206 0.0704706 0.107764
0.0580721 0.0704512 0.107627
0.0582009 0.0704122 0.107476
0.0583515 0.0703921 0.107338
0.0584826 0.070355 0.107188
0.0586403 0.0703411 0.107055
0.0587478 0.0702835 0.106891
0.0588952 0.0702606 0.106751
0.0590375 0.0702333 0.106608
0.0592004 0.070224 0.106478
0.0593634 0.0702147 0.106349
0.0595683 0.0702421 0.106246
0.0597441 0.0702441 0.106125
0.0599326 0.0702573 0.106011
0.0601523 0.0702978 0.105918
0.0603739 0.0703401 0.105827
0.0605701 0.0703602 0.105719
0.0607844 0.0703962 0.105622
0.0610003 0.0704336 0.105527
0.0611883 0.0704466 0.105414
0.0613922 0.0704737 0.105311
0.0616119 0.0705147 0.105219
0.0618342 0.0705581 0.105128
0.0620421 0.0705888 0.105029
0.0622448 0.0706151 0.104926
0.0624637 0.0706556 0.104833
0.0626788 0.070693 0.104738
0.0628984 0.0707343 0.104647
0.0631143 0.0707725 0.104553
0.0633366 0.0708163 0.104463
0.0635371 0.070841 0.104359
0.0637294 0.0708585 0.10425
0.0639491 0.0709004 0.104159
0.0641542 0.0709293 0.104058
0.0643668 0.0709649 0.103963
0.0645768 0.0709983 0.103866
0.0648116 0.0710537 0.103785
0.0650045 0.0710721 0.103677
0.0652096 0.0711014 0.103577
0.0654092 0.0711258 0.103473
0.0656238 0.0711636 0.103379
0.0658214 0.0711864 0.103275
0.0660064 0.071198 0.103162
0.0661816 0.071201 0.103042
0.0663568 0.0712039 0.102923
0.0665035 0.0711816 0.102785
0.0666382 0.0711484 0.102639
0.0667961 0.0711361 0.102508
0.0669289 0.0711013 0.102361
0.067168 0.0711614 0.102284
0.0470704 0.0681532 0.112291
0.0473485 0.0682392 0.112226
0.0475394 0.0682513 0.112109
0.0476695 0.0682119 0.111956
0.0478492 0.0682146 0.111832
0.0480022 0.0681947 0.111693
0.0481718 0.0681888 0.111564
0.0483351 0.0681776 0.111431
0.0485026 0.06817 0.1113
0.0486816 0.0681723 0.111177
0.0488237 0.0681431 0.111031
0.0489562 0.0681057 0.110879
0.0490969 0.0680754 0.110733
0.0492101 0.0680215 0.11057
0.0492603 0.0679139 0.110368
0.0493089 0.0678048 0.110166
0.0493952 0.0677278 0.109986
0.0495061 0.0676718 0.109822
0.0495528 0.0675609 0.109618
0.0501311 0.0665421 0.10764
0.0502502 0.0664925 0.107479
0.0505966 0.0666386 0.107459
0.0507674 0.0666336 0.10733
0.0509025 0.0665978 0.107179
0.0510145 0.0665421 0.107014
0.0511086 0.0664709 0.106838
0.0512821 0.0664682 0.106711
0.0548153 0.0692168 0.108435
0.0568642 0.0705369 0.109013
0.056973 0.0704806 0.10885
0.0571505 0.0704838 0.108729
0.0572324 0.0704041 0.108548
0.0572853 0.0702992 0.108349
0.0574081 0.070255 0.108194
0.057549 0.0702263 0.10805
0.0577702 0.0702675 0.107957
0.0579311 0.0702564 0.107826
0.0580705 0.0702265 0.107681
0.0582131 0.0701994 0.107539
0.0583669 0.0701821 0.107403
0.0584904 0.0701384 0.107248
0.0588047 0.069958 0.106748
0.05898 0.0699595 0.106626
0.05915 0.0699563 0.106501
0.0593728 0.0699993 0.10641
0.0595364 0.0699906 0.10628
0.0597189 0.0699985 0.106163
0.0599012 0.0700062 0.106046
0.0601146 0.0700412 0.105949
0.0603201 0.0700693 0.105846
0.0605329 0.0701039 0.105749
0.0607576 0.0701491 0.105659
0.0609596 0.0701744 0.105555
0.0611633 0.0702012 0.105452
0.0613763 0.0702362 0.105355
0.0615728 0.0702568 0.105248
0.0617869 0.070293 0.105152
0.0620191 0.0703451 0.105068
0.0622521 0.0703981 0.104984
0.0624853 0.0704513 0.104901
0.0626625 0.0704552 0.104782
0.0628699 0.0704858 0.104682
0.063099 0.0705356 0.104596
0.063315 0.0705739 0.104502
0.0635115 0.0705951 0.104396
0.0637169 0.0706242 0.104295
0.0639188 0.0706502 0.104192
0.0641301 0.0706846 0.104096
0.0643427 0.0707203 0.104
0.0645572 0.0707577 0.103906
0.0647855 0.0708074 0.103821
0.0649804 0.0708276 0.103714
0.0651632 0.070837 0.103599
0.0653921 0.0708875 0.103515
0.0655931 0.0709132 0.103412
0.0658037 0.0709476 0.103316
0.066008 0.0709763 0.103216
0.066186 0.0709817 0.103098
0.0663438 0.0709692 0.102967
0.0665083 0.0709627 0.102841
0.0666519 0.0709375 0.102701
0.0667956 0.0709125 0.102561
0.0669491 0.0708961 0.102427
0.0670745 0.0708547 0.102275
0.067203 0.070816 0.102124
0.0471071 0.0679596 0.112371
0.0473052 0.0679777 0.112258
0.0474633 0.067962 0.112121
0.0476463 0.0679674 0.112
0.0477944 0.0679433 0.111858
0.0479442 0.0679205 0.111716
0.0481424 0.067939 0.111604
0.048305 0.0679272 0.11147
0.0484803 0.0679262 0.111344
0.0486667 0.0679347 0.111225
0.0488239 0.0679184 0.111089
0.0489473 0.0678732 0.110932
0.0490687 0.0678264 0.110773
0.0491749 0.0677664 0.110606
0.0493025 0.0677248 0.110451
0.0493179 0.0675873 0.110229
0.0494291 0.0675315 0.110064
0.0494947 0.0674368 0.109872
0.0495342 0.0673195 0.109664
0.0503315 0.0663362 0.107586
0.0505383 0.0663621 0.107479
0.0507556 0.0663971 0.107379
0.050911 0.0663789 0.107241
0.0510332 0.0663319 0.107082
0.0511447 0.0662757 0.106917
0.0513962 0.0663405 0.106838
0.0548425 0.0690162 0.108508
0.0550352 0.0690317 0.108395
0.0552205 0.0690409 0.108278
0.0572415 0.0701887 0.108609
0.0573057 0.0700936 0.108418
0.0574365 0.0700562 0.108267
0.0575956 0.0700434 0.108135
0.0577923 0.0700633 0.108026
0.0579435 0.0700437 0.107889
0.0580839 0.0700147 0.107745
0.0582345 0.0699945 0.107607
0.0583754 0.069966 0.107463
0.058407 0.0698421 0.107251
0.0583625 0.0696517 0.10699
0.0585035 0.0696231 0.106846
0.0586769 0.0696227 0.106722
0.0588826 0.0696506 0.106619
0.0591393 0.0697232 0.106549
0.0593142 0.0697244 0.106427
0.0594835 0.0697206 0.106301
0.0596759 0.069737 0.10619
0.059892 0.0697744 0.106095
0.0600883 0.0697944 0.105986
0.0602948 0.0698234 0.105885
0.0605354 0.0698825 0.105805
0.0607338 0.0699045 0.105698
0.0609421 0.0699353 0.105598
0.0611538 0.0699691 0.1055
0.0613652 0.0700028 0.105402
0.0615457 0.0700094 0.105285
0.0617583 0.0700442 0.105188
0.0619765 0.0700841 0.105094
0.0622112 0.0701385 0.105012
0.0624164 0.070167 0.10491
0.0625888 0.0701667 0.104788
0.0628603 0.0702539 0.104729
0.063072 0.0702883 0.104632
0.0632737 0.070314 0.104529
0.0634922 0.0703546 0.104437
0.0636827 0.0703705 0.104327
0.0638977 0.0704082 0.104232
0.0641097 0.0704433 0.104136
0.0643183 0.0704753 0.104038
0.0645314 0.0705115 0.103942
0.0647322 0.0705368 0.103839
0.0649452 0.070573 0.103744
0.0652028 0.070649 0.103678
0.0653792 0.0706527 0.103559
0.0655744 0.0706733 0.103453
0.0657694 0.0706938 0.103346
0.0659896 0.0707368 0.103256
0.0661882 0.0707605 0.103152
0.0663579 0.0707586 0.103029
0.0665121 0.0707428 0.102896
0.066661 0.0707224 0.102759
0.0668125 0.0707042 0.102624
0.0669644 0.0706864 0.10249
0.0671051 0.0706587 0.102348
0.0672283 0.0706152 0.102194
0.0673795 0.0705968 0.102059
0.0675071 0.0705573 0.101908
0.0473129 0.0677593 0.11232
0.0474501 0.0677259 0.112171
0.0476113 0.0677128 0.112037
0.0477486 0.0676794 0.111888
0.0479624 0.0677111 0.111785
0.0481549 0.0677247 0.111669
0.0483065 0.0677035 0.111529
0.0485059 0.067723 0.111417
0.0486509 0.0676963 0.111273
0.0488059 0.067678 0.111135
0.0489303 0.0676337 0.110979
0.0490524 0.0675874 0.110821
0.0491864 0.0675512 0.11067
0.0494166 0.0672955 0.110114
0.0495089 0.0672235 0.109938
0.0495778 0.0671314 0.109747
0.0505843 0.0661754 0.107565
0.054868 0.068814 0.108579
0.0550481 0.0688186 0.108459
0.055215 0.0688119 0.10833
0.0553848 0.0688077 0.108203
0.0572238 0.06995 0.108654
0.0573282 0.0698897 0.108487
0.0574658 0.0698582 0.108341
0.0576182 0.0698396 0.108204
0.0577772 0.0698267 0.108072
0.0579378 0.0698152 0.107941
0.0580855 0.0697925 0.107801
0.0582221 0.0697602 0.107654
0.0582885 0.0693631 0.106998
0.058466 0.0693664 0.106877
0.0586541 0.0693788 0.106763
0.058848 0.0693965 0.106652
0.0590536 0.0694243 0.106549
0.0592673 0.0694594 0.106452
0.0594661 0.0694815 0.106345
0.0596538 0.0694938 0.106231
0.0598764 0.0695369 0.106139
0.0600615 0.0695471 0.106024
0.0602763 0.0695834 0.105927
0.0604981 0.069626 0.105836
0.0606916 0.0696436 0.105726
0.0609362 0.0697064 0.105649
0.0611432 0.0697362 0.105548
0.0613249 0.0697437 0.105431
0.0615199 0.0697629 0.105322
0.0617469 0.0698104 0.105234
0.0619583 0.0698444 0.105137
0.0621871 0.0698936 0.10505
0.0623767 0.0699084 0.104939
0.0625867 0.0699411 0.10484
0.0628262 0.0700002 0.104761
0.0630191 0.070018 0.104652
0.0632408 0.0700613 0.104561
0.0634583 0.0701011 0.104468
0.0636621 0.0701287 0.104367
0.0638703 0.0701604 0.104268
0.0640733 0.0701874 0.104166
0.0643008 0.0702364 0.10408
0.0644965 0.0702571 0.103973
0.0647018 0.0702864 0.103872
0.0649323 0.0703382 0.103789
0.0651393 0.0703691 0.10369
0.0653418 0.0703962 0.103588
0.0655525 0.0704305 0.103491
0.0657598 0.0704619 0.103393
0.06595 0.0704781 0.103283
0.0661692 0.0705203 0.103193
0.066352 0.07053 0.103078
0.0665203 0.0705269 0.102954
0.0666695 0.0705066 0.102818
0.0668242 0.0704913 0.102685
0.0669812 0.070478 0.102554
0.0671327 0.0704599 0.102418
0.0672771 0.0704354 0.102279
0.0674239 0.0704131 0.102141
0.0675804 0.0703995 0.102009
0.0677157 0.0703668 0.101863
0.0678699 0.0703511 0.10173
0.0472522 0.0674829 0.112342
0.0474553 0.0675054 0.112233
0.0475959 0.0674748 0.112086
0.0477412 0.0674481 0.111941
0.0479826 0.0675033 0.111855
0.0481014 0.0674541 0.111695
0.0482552 0.0674348 0.111556
0.048468 0.0674657 0.111452
0.0486186 0.0674436 0.111312
0.0487608 0.0674145 0.111166
0.0489017 0.0673841 0.111019
0.0490358 0.067348 0.110868
0.0491591 0.0673026 0.110711
0.0492614 0.0672393 0.110541
0.0492939 0.0671161 0.110329
0.0494007 0.0670565 0.110162
0.0494941 0.0669854 0.109986
0.0495606 0.0668911 0.109794
0.0553967 0.0685936 0.108266
0.0555565 0.0685807 0.108133
0.0557238 0.0685744 0.108005
0.0572104 0.0697149 0.108701
0.0573022 0.0696435 0.108526
0.0574044 0.0695812 0.108358
0.0575961 0.0695967 0.108246
0.057359 0.0689353 0.107399
0.0576898 0.0690721 0.107374
0.057768 0.0689884 0.107191
0.0579924 0.0690324 0.107099
0.0582436 0.0690999 0.107024
0.0584302 0.069111 0.106909
0.0586424 0.0691446 0.10681
0.0588116 0.0691406 0.106684
0.0590161 0.0691675 0.106581
0.0592448 0.0692157 0.106492
0.0594607 0.0692528 0.106396
0.0596669 0.0692814 0.106294
0.0598574 0.0692963 0.106182
0.0600268 0.0692927 0.106056
0.0602724 0.069356 0.105979
0.0604746 0.0693814 0.105875
0.0606807 0.0694102 0.105773
0.060909 0.0694586 0.105686
0.061108 0.0694813 0.105579
0.0613205 0.0695159 0.105482
0.0615162 0.0695359 0.105374
0.0617299 0.0695717 0.105277
0.0619419 0.0696061 0.10518
0.0621592 0.0696452 0.105086
0.0623469 0.0696583 0.104973
0.0625751 0.0697072 0.104887
0.0627796 0.0697352 0.104785
0.0630194 0.0697946 0.104706
0.0632264 0.069825 0.104606
0.0634518 0.0698717 0.104518
0.0636443 0.0698893 0.104409
0.0638451 0.0699145 0.104305
0.064047 0.0699405 0.104202
0.0642877 0.0700012 0.104124
0.0644827 0.0700212 0.104017
0.0646878 0.0700504 0.103917
0.064909 0.0700939 0.103827
0.0651018 0.0701123 0.103718
0.0653186 0.070152 0.103626
0.0655384 0.0701945 0.103535
0.06574 0.0702208 0.103433
0.0659532 0.0702575 0.103338
0.0661714 0.0702988 0.103247
0.0663511 0.0703058 0.103131
0.0665234 0.0703062 0.103009
0.066691 0.0703024 0.102885
0.0668523 0.070293 0.102756
0.0670141 0.070284 0.102628
0.067174 0.0702734 0.102499
0.0673313 0.0702605 0.102367
0.0674856 0.0702448 0.102234
0.0676444 0.0702333 0.102104
0.0677912 0.070211 0.101966
0.0679477 0.0701973 0.101834
0.0681281 0.0702052 0.101719
0.0683304 0.0702329 0.101618
0.0685221 0.070251 0.10151
0.0687097 0.0702655 0.1014
0.068892 0.0702753 0.101286
0.0690999 0.0703082 0.101189
0.0472365 0.0672445 0.112391
0.047415 0.067246 0.112266
0.0475672 0.0672252 0.112126
0.0477405 0.0672224 0.111999
0.0479328 0.0672358 0.111883
0.0480714 0.0672034 0.111735
0.0482419 0.0671983 0.111606
0.0484188 0.0671986 0.111481
0.0485979 0.0672008 0.111357
0.0487471 0.0671776 0.111215
0.0488889 0.067148 0.111069
0.0490139 0.0671041 0.110913
0.0491612 0.0670791 0.11077
0.0492421 0.0669974 0.110587
0.0493414 0.0669313 0.110415
0.0493769 0.0668106 0.110205
0.0494855 0.0667523 0.110038
0.0495583 0.0666634 0.10985
0.0496351 0.0665779 0.109664
0.0555836 0.0683798 0.108206
0.0557338 0.0683586 0.108067
0.0559293 0.0683768 0.107956
0.0561353 0.0684042 0.107852
0.0563221 0.0684149 0.107736
0.056625 0.0685268 0.107693
0.0567771 0.0685074 0.107555
0.0570119 0.0685602 0.107469
0.0571659 0.0685425 0.107333
0.0574311 0.0686219 0.107267
0.057671 0.0686795 0.107185
0.0579152 0.0687407 0.107105
0.0581679 0.0688096 0.107032
0.0583962 0.0688571 0.106943
0.0586075 0.0688899 0.106843
0.0588148 0.0689193 0.106741
0.0590101 0.0689381 0.106632
0.0592311 0.0689796 0.106538
0.0594302 0.0690019 0.106432
0.0596298 0.0690247 0.106325
0.0598135 0.0690336 0.106208
0.0600137 0.0690571 0.106102
0.0602551 0.0691168 0.106023
0.0604841 0.0691657 0.105936
0.0606722 0.0691787 0.105822
0.0608925 0.0692201 0.105729
0.0610731 0.0692266 0.105611
0.0612779 0.0692544 0.105509
0.061506 0.0693029 0.105421
0.0617151 0.0693347 0.105322
0.0619337 0.069375 0.105229
0.0621332 0.0693984 0.105123
0.06236 0.069446 0.105036
0.0625467 0.0694583 0.104922
0.0627698 0.0695027 0.104832
0.0629869 0.069542 0.104738
0.0632069 0.0695839 0.104647
0.0634264 0.0696255 0.104555
0.0636243 0.0696479 0.104449
0.0638106 0.0696601 0.104336
0.064039 0.0697097 0.10425
0.0642543 0.0697479 0.104156
0.0644584 0.069776 0.104055
0.0646513 0.0697943 0.103946
0.0648954 0.0698582 0.103871
0.065086 0.0698746 0.103761
0.0653156 0.0699257 0.103677
0.0655094 0.0699451 0.103569
0.0656985 0.0699603 0.103459
0.065913 0.0699981 0.103365
0.0661549 0.0700606 0.103289
0.0663608 0.070091 0.10319
0.0665456 0.0701025 0.103077
0.0667158 0.0701011 0.102954
0.0668805 0.0700948 0.102828
0.067049 0.0700918 0.102704
0.0672178 0.0700892 0.10258
0.0673897 0.0700893 0.102459
0.067552 0.0700808 0.102331
0.067715 0.070073 0.102204
0.0678726 0.0700605 0.102073
0.0680346 0.0700518 0.101945
0.0682206 0.0700648 0.101833
0.0684141 0.0700846 0.101727
0.0685975 0.0700952 0.101613
0.0687942 0.070118 0.101509
0.0689906 0.0701405 0.101404
0.0691852 0.0701615 0.101299
0.0693934 0.0701947 0.101202
0.0696101 0.0702358 0.101112
0.0698145 0.0702658 0.101013
0.0700103 0.070288 0.100909
0.0702089 0.0703128 0.100806
0.0704103 0.0703403 0.100706
0.0705975 0.0703549 0.100596
0.0707804 0.0703657 0.100483
0.0709799 0.0703916 0.100381
0.0711738 0.0704125 0.100276
0.0713799 0.0704444 0.100179
0.0715534 0.0704469 0.10006
0.0472109 0.0669975 0.112434
0.0473918 0.0670011 0.112311
0.0475544 0.0669891 0.112177
0.0477371 0.0669943 0.112055
0.0478701 0.0669571 0.111903
0.0480506 0.0669604 0.11178
0.0482336 0.0669659 0.111658
0.0483907 0.0669493 0.111521
0.048543 0.0669287 0.111382
0.0487264 0.0669346 0.11126
0.0488718 0.066908 0.111116
0.0489653 0.066837 0.110941
0.0491299 0.0668269 0.110809
0.0492592 0.0667866 0.110655
0.0493279 0.0666943 0.110464
0.0493887 0.066595 0.110269
0.0495142 0.0665513 0.110113
0.0495933 0.0664677 0.109929
0.0496447 0.0663603 0.109727
0.0497045 0.06626 0.109531
0.0554122 0.0681582 0.108388
0.0555805 0.0681526 0.10826
0.0557351 0.0681352 0.108123
0.0559371 0.068159 0.108017
0.0561121 0.0681595 0.107893
0.0563227 0.0681909 0.107792
0.0565419 0.0682299 0.107696
0.0567936 0.0682973 0.107621
0.0569787 0.0683068 0.107504
0.0572171 0.0683628 0.107421
0.0574304 0.068397 0.107322
0.0576188 0.0684094 0.107207
0.0578928 0.0684968 0.107146
0.0581455 0.0685657 0.107073
0.0583538 0.0685958 0.106971
0.05859 0.0686503 0.106887
0.0587754 0.0686605 0.106771
0.0589771 0.068685 0.106666
0.0591872 0.0687169 0.106565
0.0594164 0.0687657 0.106478
0.0595764 0.0687536 0.106346
0.0597838 0.0687833 0.106244
0.0599829 0.0688058 0.106137
0.0602495 0.0688878 0.106074
0.0604644 0.0689243 0.105977
0.0606727 0.0689551 0.105877
0.0608795 0.0689846 0.105775
0.0610607 0.0689916 0.105658
0.0612598 0.0690145 0.105552
0.0614664 0.069044 0.10545
0.0616973 0.069095 0.105365
0.0618966 0.0691182 0.105259
0.0621213 0.069164 0.10517
0.0623598 0.069222 0.10509
0.0625413 0.0692295 0.104972
0.0627574 0.0692679 0.104878
0.0629674 0.0693009 0.10478
0.0631856 0.0693412 0.104687
0.0634193 0.0693953 0.104604
0.0636132 0.0694142 0.104496
0.0637975 0.0694246 0.104381
0.064015 0.0694646 0.104288
0.0642285 0.0695011 0.104193
0.0644286 0.0695257 0.104089
0.0646182 0.069541 0.103978
0.0648442 0.0695889 0.103891
0.065082 0.0696473 0.103812
0.0652997 0.0696879 0.10372
0.0655022 0.069715 0.103618
0.065693 0.0697317 0.103508
0.0659171 0.0697782 0.10342
0.0661269 0.069812 0.103324
0.06635 0.0698577 0.103236
0.0665395 0.0698736 0.103126
0.0667321 0.0698921 0.103018
0.0669099 0.0698975 0.1029
0.0670869 0.0699022 0.102782
0.0672606 0.0699039 0.102661
0.0674306 0.0699024 0.102539
0.0676081 0.0699076 0.102421
0.0677864 0.0699135 0.102304
0.0679596 0.069915 0.102183
0.0681377 0.0699209 0.102066
0.068317 0.0699279 0.10195
0.0684943 0.0699331 0.101833
0.0686838 0.0699494 0.101723
0.0689185 0.0700064 0.101644
0.069098 0.0700137 0.101529
0.0692939 0.0700359 0.101424
0.0695012 0.0700684 0.101327
0.0697026 0.0700957 0.101226
0.0699006 0.07012 0.101123
0.0701168 0.0701607 0.101032
0.070308 0.070179 0.100925
0.0704988 0.0701969 0.100817
0.0706914 0.0702164 0.100711
0.0708753 0.0702282 0.100599
0.0710882 0.0702663 0.100507
0.0713001 0.0703036 0.100414
0.0714865 0.0703177 0.100303
0.0716499 0.070311 0.100178
0.0718016 0.0702937 0.100044
0.0719574 0.0702801 0.0999128
0.0721204 0.0702731 0.0997868
0.0722874 0.0702697 0.0996636
0.0473787 0.0667647 0.112361
0.0475427 0.0667539 0.112228
0.0476849 0.0667245 0.112082
0.0478502 0.0667147 0.111949
0.0480194 0.0667084 0.111819
0.0481862 0.0667001 0.111688
0.0483812 0.0667159 0.111574
0.0485327 0.0666944 0.111433
0.0486917 0.0666795 0.111297
0.048832 0.0666486 0.11115
0.0489685 0.0666143 0.111001
0.0491096 0.066584 0.110854
0.0492218 0.066529 0.11069
0.0493368 0.0664762 0.110527
0.0494156 0.0663924 0.110343
0.0494956 0.0663096 0.110159
0.0495654 0.0662179 0.109969
0.0496454 0.0661349 0.109785
0.0497534 0.0660761 0.109618
0.0498722 0.0660263 0.109458
0.0554145 0.0679356 0.108445
0.0555718 0.0679204 0.10831
0.0557388 0.0679138 0.108182
0.0559102 0.067911 0.108056
0.0560776 0.0679048 0.107927
0.0562645 0.0679155 0.107811
0.0564905 0.0679605 0.107719
0.0567197 0.0680083 0.10763
0.0569035 0.0680165 0.107512
0.057143 0.0680735 0.107429
0.0573342 0.0680883 0.107316
0.0576074 0.0681749 0.107255
0.0578585 0.0682424 0.10718
0.0580461 0.0682542 0.107065
0.0582899 0.0683154 0.106986
0.0585115 0.0683572 0.106892
0.0587421 0.0684069 0.106805
0.0589706 0.0684549 0.106716
0.0591723 0.0684794 0.106611
0.0594124 0.0685379 0.10653
0.0595695 0.0685233 0.106396
0.0597536 0.0685325 0.10628
0.0599831 0.0685817 0.106192
0.0602154 0.0686335 0.106107
0.0604579 0.0686944 0.106028
0.0606688 0.0687275 0.105929
0.0608808 0.0687616 0.105831
0.0610639 0.0687703 0.105714
0.0612719 0.068801 0.105614
0.0614794 0.0688313 0.105513
0.0616615 0.0688393 0.105396
0.0618723 0.0688726 0.105297
0.0621113 0.068931 0.105217
0.0623167 0.0689597 0.105116
0.0625092 0.068977 0.105006
0.0627396 0.0690281 0.10492
0.0629531 0.0690642 0.104824
0.0631589 0.0690935 0.104723
0.0633733 0.0691306 0.104628
0.0635753 0.0691566 0.104525
0.0637881 0.0691924 0.104428
0.0639952 0.0692231 0.104329
0.064213 0.0692634 0.104236
0.0644051 0.0692809 0.104127
0.0646075 0.0693077 0.104024
0.0648203 0.0693437 0.103928
0.0650691 0.069412 0.103857
0.0652704 0.069438 0.103754
0.065464 0.0694571 0.103646
0.065676 0.0694927 0.10355
0.0658939 0.0695337 0.103458
0.0660888 0.0695542 0.103351
0.0663006 0.0695898 0.103256
0.0665128 0.0696259 0.103161
0.0667223 0.0696596 0.103064
0.0669322 0.0696938 0.102967
0.0671196 0.0697079 0.102856
0.0673005 0.0697161 0.102741
0.0674757 0.0697192 0.102621
0.0676561 0.0697271 0.102506
0.0678438 0.0697415 0.102395
0.0680324 0.0697568 0.102285
0.0682011 0.0697543 0.102161
0.0683723 0.069754 0.102039
0.0685708 0.0697783 0.101936
0.0687943 0.0698253 0.10185
0.0690016 0.0698577 0.101752
0.0691958 0.0698783 0.101647
0.0694122 0.0699192 0.101556
0.0696025 0.0699363 0.101447
0.069791 0.069952 0.101338
0.0700019 0.069988 0.101243
0.0702044 0.0700164 0.101144
0.0704068 0.0700449 0.101044
0.0705791 0.0700461 0.100924
0.0707783 0.0700717 0.100822
0.070966 0.0700869 0.100712
0.0711813 0.0701273 0.100622
0.0713938 0.0701651 0.100529
0.0715689 0.0701691 0.100411
0.0717279 0.0701584 0.100282
0.0718766 0.0701384 0.100146
0.0720271 0.07012 0.100012
0.0722003 0.0701222 0.0998928
0.0723888 0.0701385 0.0997843
0.0725461 0.0701264 0.0996545
0.0727279 0.0701366 0.0995415
0.0728966 0.0701349 0.0994196
0.0475178 0.0665072 0.112271
0.0476682 0.0664848 0.11213
0.0478236 0.0664666 0.111991
0.0480315 0.0664933 0.111884
0.0482149 0.0664992 0.111763
0.0483499 0.0664637 0.111613
0.0485082 0.0664481 0.111476
0.0486718 0.066437 0.111343
0.0488201 0.0664128 0.1112
0.0489639 0.0663848 0.111055
0.0491007 0.0663508 0.110906
0.0492238 0.0663051 0.110748
0.0493364 0.0662503 0.110585
0.0494247 0.0661745 0.110406
0.0494842 0.0660739 0.11021
0.0495933 0.066016 0.110043
0.0497004 0.0659563 0.109876
0.0497894 0.065881 0.109697
0.0499047 0.0658282 0.109535
0.0502138 0.0659426 0.10949
0.0552924 0.0677566 0.108658
0.0554071 0.0677044 0.108496
0.0555706 0.0676946 0.108365
0.0557366 0.0676871 0.108236
0.0559219 0.0676965 0.108119
0.0560864 0.0676877 0.107988
0.0562648 0.067691 0.107867
0.0564602 0.0677093 0.107756
0.0566996 0.0677661 0.107673
0.0568919 0.0677817 0.10756
0.0570504 0.0677678 0.107427
0.057295 0.0678294 0.107347
0.057613 0.0679552 0.107314
0.0577958 0.0679629 0.107196
0.0580506 0.0680336 0.107123
0.0582796 0.0680818 0.107034
0.0584872 0.0681113 0.106932
0.0587552 0.068194 0.106868
0.0589552 0.068217 0.106762
0.0591658 0.0682494 0.106662
0.0593897 0.0682936 0.10657
0.0595864 0.0683137 0.106462
0.0597883 0.0683387 0.106356
0.0600056 0.0683772 0.106261
0.0602301 0.0684222 0.106171
0.0604309 0.0684463 0.106065
0.0606573 0.0684931 0.105976
0.060886 0.068542 0.105888
0.0610737 0.0685547 0.105775
0.0612643 0.06857 0.105663
0.0614696 0.0685985 0.105561
0.0616617 0.0686153 0.10545
0.0618651 0.0686421 0.105347
0.0621023 0.0686989 0.105266
0.0622686 0.068693 0.105139
0.0625079 0.0687518 0.105059
0.0627374 0.0688021 0.104973
0.0629489 0.0688364 0.104875
0.0631359 0.068849 0.104762
0.0633465 0.0688827 0.104664
0.0635682 0.0689263 0.104574
0.0637524 0.0689366 0.104459
0.0639484 0.0689574 0.104352
0.0641807 0.0690107 0.104268
0.0643946 0.0690476 0.104173
0.0645959 0.0690733 0.10407
0.0648182 0.0691179 0.10398
0.0650417 0.0691636 0.103892
0.0652439 0.0691904 0.103789
0.0654582 0.0692281 0.103695
0.0656506 0.0692461 0.103586
0.0658663 0.0692852 0.103493
0.0660632 0.0693074 0.103388
0.0662741 0.0693423 0.103291
0.0664705 0.0693642 0.103186
0.0666703 0.0693892 0.103082
0.0669326 0.0694704 0.10302
0.0671404 0.0695028 0.102923
0.0673348 0.0695231 0.102816
0.0675259 0.0695406 0.102707
0.0677091 0.069551 0.102593
0.0679042 0.0695722 0.102487
0.0680864 0.0695818 0.102373
0.0682655 0.0695886 0.102257
0.0684491 0.0695994 0.102143
0.0686521 0.0696279 0.102043
0.0688861 0.0696845 0.101964
0.069072 0.0696976 0.101852
0.0692999 0.0697488 0.101769
0.0695078 0.0697819 0.101672
0.0697013 0.0698021 0.101566
0.0698948 0.0698223 0.10146
0.0700951 0.0698487 0.101358
0.0703032 0.0698824 0.101262
0.0704798 0.0698874 0.101145
0.0706662 0.0699015 0.101034
0.0708865 0.0699463 0.100947
0.0710603 0.0699489 0.100828
0.0712571 0.0699725 0.100725
0.0714701 0.0700109 0.100632
0.071647 0.0700165 0.100516
0.0718193 0.070018 0.100396
0.0719801 0.070009 0.100268
0.0721359 0.0699955 0.100138
0.0723174 0.0700053 0.100024
0.0724862 0.0700038 0.0999023
0.0726457 0.0699937 0.099774
0.0728232 0.07 0.0996581
0.0729953 0.0700015 0.0995385
0.0731689 0.0700043 0.09942
0.0733435 0.0700082 0.0993023
0.0475255 0.0662883 0.112334
0.0476291 0.0662258 0.112164
0.0477871 0.0662099 0.112028
0.0480099 0.0662494 0.111929
0.0481676 0.0662332 0.111793
0.0483482 0.0662366 0.111669
0.0485083 0.0662225 0.111534
0.0486723 0.0662118 0.111401
0.0488076 0.0661765 0.111251
0.0489626 0.0661581 0.111112
0.0491076 0.066131 0.110968
0.0492337 0.0660878 0.110812
0.049356 0.0660413 0.110654
0.0494639 0.0659824 0.110487
0.0495424 0.0658981 0.110302
0.0496354 0.0658263 0.110126
0.0497392 0.0657637 0.109957
0.0498457 0.0657033 0.109789
