0.051701 0.106059 0.104107
0.0518991 0.10598 0.104024
0.0520972 0.105905 0.103948
0.0522949 0.105853 0.103907
0.0524929 0.10579 0.103851
0.0526907 0.105736 0.103806
0.0528876 0.105723 0.103828
0.0530847 0.105707 0.103844
0.0532817 0.105688 0.103856
0.0534798 0.105632 0.10381
0.053677 0.105607 0.103812
0.0538755 0.105537 0.103744
0.0540735 0.105489 0.103711
0.0542723 0.105412 0.10363
0.0544709 0.105348 0.103572
0.0546692 0.105294 0.103529
0.0548687 0.105206 0.103431
0.0554687 0.104911 0.103093
0.0556691 0.104811 0.102977
0.0560692 0.104636 0.102786
0.0562686 0.104571 0.102725
0.0564687 0.10449 0.10264
0.0566684 0.104422 0.102575
0.0568679 0.104361 0.10252
0.0570677 0.104293 0.102455
0.0590889 0.103234 0.101209
0.05929 0.103163 0.10114
0.0594907 0.103103 0.101088
0.0596909 0.103053 0.101052
0.0598911 0.103005 0.101018
0.0600907 0.102969 0.101003
0.06029 0.102937 0.100996
0.0604887 0.102918 0.101008
0.0606894 0.102864 0.100965
0.06089 0.102811 0.100924
0.0610917 0.102741 0.100856
0.0612915 0.102704 0.100841
0.0614929 0.10264 0.100782
0.0616944 0.102577 0.100725
0.0618955 0.10252 0.100678
0.0621 0.10241 0.100548
0.0623001 0.102373 0.100532
0.0629111 0.102098 0.100226
0.0631153 0.102003 0.10012
0.0633189 0.101917 0.100027
0.0635225 0.101833 0.0999374
0.0637248 0.10177 0.0998806
0.0639276 0.101701 0.0998156
0.0641299 0.10164 0.0997622
0.064334 0.101555 0.0996712
0.0645358 0.101503 0.0996312
0.0682568 0.0996436 0.0974822
0.0684607 0.0995872 0.0974365
0.0686646 0.0995327 0.0973937
0.0688682 0.0994809 0.0973552
0.0690719 0.0994293 0.097317
0.069276 0.0993741 0.0972731
0.0694801 0.0993188 0.0972292
0.0696842 0.0992648 0.0971874
0.0698885 0.0992088 0.0971422
0.0700926 0.0991562 0.0971025
0.0769917 0.0962939 0.0940447
0.0771985 0.0962412 0.0940055
0.0774044 0.0961966 0.0939788
0.0776109 0.0961472 0.0939447
0.0778168 0.0961029 0.0939187
0.0780224 0.0960616 0.0938972
0.0782281 0.0960203 0.0938758
0.0784328 0.0959862 0.0938656
0.0786379 0.09595 0.093852
-0.016153 0.0279522 -0.0334549
-0.0158511 0.028089 -0.0331745
-0.0155118 0.0284149 -0.0325872
-0.0152176 0.0285168 -0.0323637
-0.0147403 0.0295477 -0.030632
-0.0144818 0.0294742 -0.0306937
-0.0142108 0.0294646 -0.0306513
-0.0137746 0.030303 -0.0292329
-0.0133777 0.0309471 -0.0281302
-0.0130988 0.0309858 -0.0280099
-0.0127093 0.0316006 -0.026955
-0.000824563 0.0482556 0.00190484
-0.000574049 0.0482311 0.00191915
-0.000327367 0.0481828 0.00189514
0.000467191 0.0499763 0.00490017
0.000703316 0.0498711 0.00478389
0.00197229 0.0531472 0.0102342
0.00220848 0.0530591 0.010145
0.00295996 0.0530722 0.010325
0.00333949 0.0539287 0.0117601
0.00364168 0.0542821 0.0123832
0.00392096 0.0544871 0.0127665
0.00416983 0.0544906 0.0128249
0.00447353 0.0548647 0.0134809
0.00474935 0.0550542 0.0138392
0.00520313 0.0564616 0.0161612
0.00546176 0.0565453 0.0163485
0.00576606 0.056946 0.0170467
0.00601226 0.0569479 0.017102
0.00626944 0.057027 0.0172816
0.0065163 0.0570348 0.0173463
0.00690887 0.0580743 0.0190737
0.00723504 0.0586541 0.0200599
0.00747759 0.0586422 0.0200924
0.00778835 0.0591223 0.0209177
0.0080681 0.0593838 0.0213905
0.00831914 0.0594393 0.0215316
0.00920639 0.0624005 0.026403
0.00944634 0.0623949 0.0264452
0.00968298 0.0623648 0.0264478
0.00992643 0.062386 0.0265329
0.0101895 0.0625565 0.0268584
0.0104509 0.0627172 0.027168
0.0107005 0.0627896 0.0273354
0.0175009 0.0723784 0.0439436
0.0177333 0.0723939 0.0440174
0.0179675 0.0724259 0.0441179
0.01826 0.0730035 0.0450933
0.018542 0.073492 0.0459259
0.0187724 0.0734991 0.045986
0.0190404 0.0738661 0.0466233
0.0193089 0.0742451 0.0472798
0.0196164 0.0750089 0.0485529
0.0198515 0.0750769 0.0487104
0.0200778 0.0750595 0.0487309
0.0219081 0.0775265 0.0530212
0.0227862 0.0796978 0.0566416
0.02301 0.079699 0.056691
0.0232304 0.0796638 0.0566821
0.0234527 0.0796495 0.0567067
0.0236772 0.0796604 0.0567716
0.0239043 0.079701 0.0568841
0.0257117 0.0853031 0.0661277
0.0259297 0.0852988 0.0661672
0.0261575 0.085413 0.0663963
0.0263836 0.0855099 0.0665976
0.0266013 0.0855051 0.0666362
0.0268202 0.0855154 0.066699
0.0270356 0.0854814 0.066691
0.0272514 0.0854536 0.0666928
0.0274667 0.085418 0.0666822
0.0276806 0.0853636 0.0666417
0.0278963 0.0853329 0.066639
0.0303527 0.0895151 0.073775
0.0305685 0.089542 0.0738635
0.0307849 0.0895794 0.0739686
0.0310152 0.0898358 0.0744231
0.0312549 0.0902479 0.0751258
0.031471 0.0902938 0.0752442
0.0316858 0.09032 0.0753313
0.0323775 0.0947557 0.0824934
0.0325968 0.0949233 0.0828051
0.0328147 0.095075 0.0830914
0.0330534 0.0955934 0.083962
0.0332885 0.0960645 0.0847569
0.0334987 0.0961037 0.0848636
0.0337082 0.0961306 0.0849507
0.0339197 0.0961964 0.0850997
0.034127 0.0961876 0.0851298
0.0343497 0.0964714 0.0856261
0.0345625 0.0965749 0.0858349
0.0347717 0.0966106 0.0859359
0.0353819 0.0963694 0.0856842
0.0355901 0.0963856 0.085754
0.0358038 0.0965227 0.0860163
0.0360389 0.0971341 0.0870332
0.0362464 0.0971546 0.0871097
0.036454 0.097176 0.0871877
0.0366605 0.0971765 0.0872324
0.0368698 0.0972413 0.0873794
0.0370791 0.0973119 0.0875356
0.0372845 0.0972909 0.087546
0.0375912 0.0998168 0.0916059
0.0377956 0.0998235 0.0916599
0.0380009 0.099855 0.0917535
0.038205 0.0998587 0.0918028
0.0384092 0.0998649 0.0918559
0.0386149 0.0999127 0.0919754
0.0388184 0.0999034 0.0920038
0.0390233 0.0999339 0.0920957
0.0392276 0.0999519 0.0921675
0.0394315 0.0999569 0.0922189
0.0413402 0.103072 0.0975509
0.0415551 0.103667 0.0985381
0.0417686 0.104243 0.0994938
0.0419729 0.10445 0.0998656
0.0424072 0.10617 0.102678
0.0426054 0.106182 0.102739
0.0428038 0.106208 0.102822
0.0430023 0.106241 0.102917
0.0432001 0.106246 0.102967
0.0433979 0.106246 0.103009
0.0435958 0.106254 0.103064
0.0437939 0.106285 0.103154
0.0442092 0.107822 0.105673
0.0444055 0.107826 0.105722
0.044602 0.107848 0.105798
0.0447985 0.107876 0.105885
0.0449995 0.10838 0.106725
0.0451952 0.108378 0.106763
0.0453906 0.108351 0.106762
0.045586 0.108323 0.10676
0.0457814 0.108288 0.106746
0.0459768 0.10825 0.106727
0.0461721 0.108189 0.106673
0.0463675 0.108146 0.106646
0.046563 0.108102 0.106618
0.0467585 0.10804 0.106562
0.046954 0.107972 0.106496
0.0471497 0.107907 0.106434
0.0473453 0.107845 0.106378
0.0475411 0.107779 0.106315
0.0477369 0.107725 0.106271
0.0479328 0.107674 0.106233
0.0481287 0.107626 0.106198
0.0483246 0.107586 0.106176
0.0485206 0.107539 0.106144
0.0516795 0.105837 0.104124
0.0518785 0.105712 0.10397
0.0520763 0.105657 0.103925
0.0522741 0.105602 0.10388
0.0524718 0.105555 0.103848
0.0526695 0.10551 0.103818
0.0528664 0.105501 0.103847
0.0530635 0.105484 0.103861
0.0532607 0.105459 0.103863
0.0534587 0.105408 0.103825
0.0536566 0.105358 0.103788
0.0538544 0.105318 0.103767
0.0540522 0.105275 0.103742
0.0542509 0.105205 0.103672
0.0544494 0.105144 0.103618
0.054648 0.105082 0.103563
0.0548471 0.105005 0.103484
0.0550466 0.10492 0.103392
0.0552468 0.104818 0.103273
0.0554466 0.104731 0.103178
0.0556465 0.104642 0.10308
0.0590691 0.103005 0.10122
0.0592703 0.102933 0.10115
0.0594706 0.102882 0.101112
0.0596708 0.102832 0.101075
0.0598711 0.102782 0.101039
0.0600705 0.102751 0.101031
0.0602701 0.102716 0.101019
0.0604691 0.102691 0.101023
0.0606689 0.102653 0.101004
0.0608704 0.102585 0.100941
0.0610699 0.102554 0.100934
0.0612714 0.10249 0.100874
0.0614723 0.102435 0.100831
0.0616743 0.102364 0.100761
0.0618769 0.102283 0.100677
0.0620786 0.102219 0.100618
0.0622827 0.102118 0.100502
0.0624853 0.102041 0.100423
0.0626891 0.101949 0.100322
0.0628932 0.101853 0.100213
0.0630954 0.101789 0.100155
0.0632999 0.10169 0.100042
0.0635011 0.101643 0.10001
0.063706 0.101541 0.0998937
0.0639093 0.101466 0.0998177
0.0641116 0.101405 0.0997654
0.0643135 0.101352 0.0997235
0.064517 0.101277 0.099648
0.0647189 0.101224 0.0996079
0.0680291 0.0995381 0.0976476
0.0682331 0.099481 0.0976009
0.0684368 0.0994269 0.0975587
0.0686408 0.0993709 0.0975138
0.0688445 0.0993181 0.0974736
0.0690481 0.0992672 0.0974367
0.069252 0.0992139 0.0973957
0.0694557 0.0991632 0.0973591
0.0696598 0.0991093 0.0973174
0.0765569 0.096211 0.0942055
0.0767644 0.0961519 0.0941563
0.0769712 0.0960985 0.0941161
0.0771772 0.0960523 0.094087
0.0773836 0.0960033 0.0940536
0.0775902 0.095954 0.0940196
0.0777965 0.0959066 0.0939888
0.078002 0.0958661 0.0939686
0.0782077 0.0958238 0.0939457
0.0784127 0.095788 0.0939328
0.0786183 0.0957477 0.0939129
-0.0162883 0.0272016 -0.0341613
-0.01599 0.0273181 -0.033914
-0.0156592 0.0275995 -0.0333994
-0.0152687 0.0281848 -0.032392
-0.0148342 0.0289981 -0.031015
-0.0145315 0.0291484 -0.0307135
-0.0142409 0.0292385 -0.0305097
-0.0139192 0.0294893 -0.0300452
-0.0135203 0.0301409 -0.0289313
-0.0131499 0.0306512 -0.0280466
-0.0126736 0.0317177 -0.0262607
-0.000854289 0.0480348 0.00202307
-0.000605941 0.0479969 0.00201574
-0.000355577 0.0479714 0.00202848
-0.000116257 0.047877 0.00193
0.000332192 0.0490948 0.00394907
0.000571856 0.0490083 0.00386321
0.000930009 0.0496731 0.00498955
0.00119357 0.049742 0.00515425
0.00172535 0.051533 0.00809656
0.00200878 0.0517418 0.00848653
0.00224195 0.0516273 0.00835504
0.00248118 0.0515513 0.00828561
0.00363517 0.0542153 0.0127392
0.00390903 0.0543849 0.0130652
0.00418404 0.0545646 0.0134074
0.00447351 0.0548443 0.0139106
0.00472421 0.0548643 0.0139953
0.00508196 0.055616 0.0152589
0.00544013 0.0563798 0.0165416
0.00572729 0.0566624 0.0170488
0.00597492 0.0566737 0.0171192
0.00621855 0.0566577 0.0171455
0.00717662 0.0582282 0.01983
0.00743955 0.058361 0.0200956
0.00770412 0.0585077 0.0203833
0.0080304 0.0591041 0.0213948
0.00827325 0.0590994 0.0214388
0.00894823 0.062269 0.0265897
0.00918777 0.0622605 0.0266271
0.00942562 0.0622397 0.0266446
0.00967338 0.0622931 0.0267816
0.00993108 0.0624226 0.0270407
0.010188 0.0625479 0.0272933
0.0104304 0.0625647 0.0273712
0.0106698 0.0625588 0.0274126
0.0109123 0.062578 0.0274944
0.0174601 0.0720496 0.0438474
0.017697 0.0721044 0.0439842
0.0179385 0.0722039 0.0441927
0.0182176 0.0726564 0.0449668
0.0185145 0.0732826 0.0460193
0.018744 0.073282 0.0460668
0.0189752 0.0732966 0.0461389
0.0192662 0.073889 0.0471367
0.0195519 0.0744397 0.0480674
0.0198214 0.0748415 0.0487594
0.0200481 0.0748279 0.0487859
0.0209366 0.0768989 0.0522466
0.0211692 0.0769649 0.0524001
0.0214021 0.0770357 0.0525614
0.0216443 0.0772041 0.0528789
0.0218984 0.0775013 0.0534023
0.0221591 0.077874 0.0540465
0.0227592 0.0794901 0.0567272
0.0229819 0.0794794 0.0567575
0.0232067 0.0794929 0.0568266
0.0234308 0.0794979 0.056882
0.0236542 0.0794965 0.0569272
0.0238808 0.0795327 0.0570325
0.0259064 0.085131 0.0663073
0.0261319 0.0852182 0.066493
0.0263543 0.0852692 0.0666208
0.026576 0.0853133 0.0667375
0.0267941 0.0853131 0.0667835
0.0270103 0.0852887 0.0667908
0.0272246 0.0852413 0.0667614
0.0274389 0.0851923 0.0667295
0.0276526 0.085135 0.0666844
0.0278669 0.0850863 0.0666529
0.0303269 0.0893106 0.0738491
0.0305415 0.0893191 0.0739082
0.0307583 0.0893618 0.0740217
0.0309796 0.089477 0.0742507
0.0312086 0.0897168 0.0746782
0.0314299 0.0898406 0.0749208
0.0316571 0.0900657 0.0753247
0.032346 0.0944472 0.0823935
0.032564 0.0945933 0.0826705
0.032789 0.094863 0.0831444
0.0330267 0.0953636 0.0839858
0.0332612 0.0958231 0.0847617
0.0334739 0.0959058 0.0849374
0.0336814 0.0958953 0.084965
0.0338886 0.095882 0.084988
0.0341083 0.0961028 0.0853834
0.0343209 0.0961969 0.0855772
0.0355641 0.0961579 0.0857798
0.0357762 0.0962597 0.0859856
0.0360145 0.0969398 0.0871107
0.0362224 0.096966 0.0871963
0.0364291 0.0969696 0.087246
0.0366365 0.0969884 0.0873197
0.0368432 0.0969918 0.087369
0.0370501 0.0970031 0.0874308
0.0372569 0.0970135 0.0874911
0.0375669 0.0996157 0.0916682
0.0377728 0.0996599 0.0917818
0.0379774 0.0996741 0.0918478
0.0381817 0.0996828 0.091905
0.0383851 0.0996646 0.0919193
0.0385899 0.0996879 0.0919998
0.0387951 0.0997249 0.0921018
0.0389998 0.0997506 0.0921858
0.0392037 0.099755 0.0922361
0.0394081 0.0997755 0.0923119
0.0413188 0.10296 0.0977495
0.0415272 0.10328 0.0982996
0.04174 0.103821 0.0991985
0.041948 0.104182 0.0998131
0.0425833 0.106038 0.102881
0.0427812 0.10604 0.102926
0.0429789 0.106029 0.102951
0.0431769 0.106039 0.103008
0.0433749 0.106046 0.103063
0.0435729 0.106063 0.103131
0.043771 0.106093 0.10322
0.0443834 0.10768 0.105859
0.0445799 0.107708 0.105945
0.0447763 0.107729 0.106018
0.044977 0.108195 0.106798
0.0451727 0.108191 0.106832
0.0453681 0.108164 0.106832
0.0455635 0.108129 0.106818
0.0457589 0.108089 0.106796
0.0459543 0.108055 0.106785
0.0461496 0.108001 0.10674
0.046345 0.107938 0.106682
0.0465405 0.107878 0.106629
0.0467361 0.10783 0.106595
0.0469316 0.107765 0.106535
0.0471273 0.107697 0.106468
0.047323 0.10765 0.106436
0.0475188 0.107579 0.106365
0.0477146 0.107527 0.106325
0.0479104 0.107507 0.106334
0.0481063 0.107447 0.106281
0.0483023 0.107406 0.106258
0.0516659 0.105184 0.103464
0.0518597 0.10535 0.103767
0.0520558 0.105385 0.103864
0.0522531 0.105361 0.103868
0.0524505 0.105328 0.103859
0.0526482 0.105286 0.103834
0.0528455 0.105262 0.103839
0.0530426 0.105247 0.103857
0.0532398 0.105226 0.103864
0.0534377 0.10518 0.103834
0.0536353 0.105143 0.103819
0.053833 0.105107 0.103803
0.0540315 0.105044 0.103746
0.0542295 0.104999 0.103717
0.0544281 0.104933 0.103655
0.0546265 0.10488 0.103614
0.0548255 0.104807 0.10354
0.0550254 0.104712 0.103432
0.0552245 0.104642 0.103365
0.0554242 0.104556 0.103271
0.0590496 0.10277 0.101222
0.0592497 0.10272 0.101186
0.0594499 0.102672 0.101152
0.0596502 0.102623 0.101117
0.0598501 0.10258 0.101092
0.0600498 0.102543 0.101076
0.0602495 0.102506 0.10106
0.0604491 0.102471 0.101048
0.0606486 0.102441 0.101041
0.0608492 0.102389 0.101003
0.0610498 0.102339 0.100967
0.061251 0.102279 0.100915
0.0614524 0.102216 0.100858
0.0616547 0.102141 0.100782
0.0622618 0.101917 0.100558
0.0624667 0.101806 0.100425
0.0626708 0.101708 0.100314
0.0628732 0.10164 0.10025
0.0630767 0.101556 0.10016
0.0632803 0.101471 0.10007
0.0634825 0.10141 0.100016
0.0636854 0.101338 0.099947
0.0638897 0.101249 0.0998489
0.0640921 0.101187 0.0997936
0.0642956 0.101112 0.0997187
0.0644981 0.10105 0.0996643
0.0647012 0.100983 0.099602
0.0678015 0.0994334 0.0978142
0.0680053 0.0993771 0.0977687
0.0682092 0.0993211 0.0977236
0.068413 0.0992659 0.0976798
0.0686168 0.0992111 0.0976368
0.0688205 0.0991588 0.0975975
0.069024 0.0991092 0.0975625
0.0765364 0.0960146 0.0942753
0.0767426 0.0959669 0.0942438
0.0769495 0.0959129 0.0942026
0.077156 0.0958629 0.0941678
0.0773629 0.0958098 0.0941279
0.0775697 0.0957581 0.0940903
0.077776 0.0957108 0.0940597
0.0779817 0.0956696 0.0940384
0.0781876 0.0956257 0.094013
0.0783938 0.0955805 0.0939857
0.0785998 0.0955376 0.0939617
-0.0163116 0.0270088 -0.0339619
-0.0160254 0.0270649 -0.0338128
-0.0157744 0.0269451 -0.0339489
-0.015342 0.0277405 -0.0326019
-0.0149639 0.0282672 -0.0316907
-0.0146247 0.0286015 -0.0310913
-0.0141953 0.0293999 -0.0297403
-0.0138804 0.0296176 -0.02933
-0.0135644 0.0298429 -0.0289075
-0.0133084 0.02976 -0.0289843
-0.0126936 0.0315447 -0.0260372
-0.0124245 0.0315376 -0.0259915
-0.00142867 0.0460406 -0.000773361
-0.000886679 0.0477978 0.00211495
-0.000637552 0.0477645 0.00211518
-0.000387261 0.0477384 0.00212698
-1.11051e-05 0.0484984 0.0034062
0.000285514 0.0487676 0.00389384
0.000521893 0.0486597 0.00377362
0.000793161 0.0487725 0.00400901
0.00116666 0.0495392 0.00529831
0.00152634 0.050226 0.0064585
0.00191288 0.0510941 0.00791055
0.00219286 0.0512809 0.00826458
0.00246657 0.0514291 0.00855651
0.00273797 0.0515641 0.0088271
0.00305233 0.0519846 0.00955733
0.00420666 0.0546951 0.0140799
0.00444441 0.0546275 0.0140236
0.00471909 0.0548103 0.0143703
0.00499889 0.0550306 0.0147772
0.00529936 0.0553958 0.0154173
0.00564907 0.0561061 0.0166124
0.0059089 0.0562002 0.0168159
0.00617486 0.0563387 0.0170909
0.00711485 0.0577785 0.0195625
0.00740787 0.0581254 0.0201722
0.00764821 0.0580972 0.0201785
0.00796529 0.0586257 0.0210798
0.00823348 0.0588042 0.0214183
0.00920605 0.0623932 0.0272892
0.00945658 0.0624689 0.0274617
0.00968895 0.0624099 0.0274178
0.00992912 0.0624093 0.0274677
0.0101688 0.0624057 0.0275128
0.0104054 0.0623785 0.02752
0.010641 0.0623436 0.0275148
0.0108806 0.0623395 0.027559
0.0176605 0.0718141 0.0439501
0.0179032 0.0719232 0.0441737
0.0181412 0.0719909 0.044331
0.0184907 0.0731092 0.0461701
0.0187189 0.073096 0.0461977
0.0189492 0.0731023 0.0462565
0.0192458 0.0737481 0.0473385
0.0194913 0.0739088 0.0476443
0.0197748 0.0744448 0.0485504
0.0200185 0.074597 0.0488423
0.020256 0.0746914 0.0490417
0.0211444 0.0767815 0.0525288
0.0213751 0.0768293 0.0526532
0.0216347 0.0771795 0.053261
0.0219155 0.0777577 0.0542332
0.0221484 0.0778401 0.0544127
0.0223749 0.0778563 0.0544862
0.0226036 0.077897 0.0545989
0.0228315 0.0779299 0.0546991
0.0231819 0.0793088 0.0569498
0.0234065 0.0793206 0.057016
0.0261081 0.0850439 0.0666223
0.0263276 0.0850594 0.0666934
0.0265468 0.0850723 0.0667603
0.026764 0.0850594 0.0667861
0.0269755 0.0849754 0.0666983
0.0271896 0.0849241 0.0666628
0.0274062 0.0849037 0.0666764
0.0276214 0.0848647 0.0666605
0.0278366 0.0848259 0.066645
0.0297496 0.0873048 0.0709634
0.0299675 0.0873371 0.0710604
0.0302968 0.0890425 0.0738222
0.0305175 0.089142 0.074026
0.0307336 0.0891739 0.0741222
0.0309522 0.0892471 0.0742841
0.0311713 0.0893289 0.0744596
0.0313921 0.0894434 0.0746874
0.0323087 0.0940438 0.0821428
0.0325417 0.0944401 0.0828178
0.0327641 0.0946655 0.0832207
0.0329938 0.0950253 0.0838374
0.0332287 0.0954886 0.0846186
0.0334437 0.0956095 0.0848549
0.0336546 0.0956619 0.0849823
0.0338611 0.0956331 0.0849808
0.0340735 0.0957153 0.0851555
0.0353332 0.0959846 0.085848
0.0355337 0.0958385 0.0856599
0.0357471 0.0959648 0.0859045
0.0359855 0.0966417 0.0870235
0.0361985 0.0967818 0.0872898
0.0364053 0.0967861 0.0873406
0.0366122 0.0967926 0.0873947
0.0368188 0.0967961 0.0874442
0.0370256 0.0968041 0.0875007
0.0372327 0.09682 0.0875698
0.0377486 0.099462 0.0918492
0.0379534 0.099481 0.0919227
0.0381571 0.0994716 0.0919511
0.0383608 0.0994607 0.0919771
0.0385657 0.0994863 0.092061
0.0387711 0.0995296 0.0921731
0.0389755 0.0995456 0.0922417
0.0391796 0.0995558 0.0923011
0.0412976 0.102856 0.0979604
0.0415011 0.102974 0.0981897
0.0417097 0.103325 0.098788
0.0419258 0.104035 0.0999546
0.0421246 0.104003 0.0999463
0.0427579 0.105828 0.10296
0.0429561 0.105844 0.103028
0.0431542 0.105858 0.103093
0.0433521 0.105863 0.103142
0.04355 0.105873 0.1032
0.0437484 0.105916 0.103309
0.0443677 0.108051 0.106811
0.044563 0.108012 0.106792
0.0447565 0.107798 0.106495
0.0449548 0.108042 0.106922
0.0451502 0.108009 0.106912
0.0453456 0.107981 0.106908
0.045541 0.107942 0.106888
0.0457364 0.1079 0.106863
0.0459318 0.107852 0.106829
0.0461271 0.107795 0.106782
0.0463226 0.107743 0.106741
0.046518 0.107671 0.106669
0.0467136 0.107627 0.106641
0.0469092 0.107568 0.10659
0.0471049 0.107523 0.106559
0.0473006 0.107459 0.106499
0.0474964 0.107397 0.106444
0.0476923 0.107355 0.106419
0.0478881 0.107305 0.106382
0.0516464 0.104851 0.103307
0.0518455 0.104748 0.103187
0.0520386 0.104954 0.103553
0.052232 0.105124 0.103863
0.0524294 0.105095 0.103859
0.0526271 0.105054 0.103836
0.0528247 0.105022 0.103829
0.0530217 0.105009 0.10385
0.0532187 0.105001 0.103879
0.0534166 0.104956 0.10385
0.0536139 0.104932 0.103854
0.0538121 0.10488 0.103814
0.0540099 0.10484 0.103793
0.0542083 0.104782 0.103743
0.0544065 0.104734 0.10371
0.0546054 0.104663 0.10364
0.0548047 0.104585 0.103559
0.0550037 0.104515 0.10349
0.0552029 0.104443 0.10342
0.0554026 0.10436 0.103331
0.0586273 0.102686 0.101375
0.0588282 0.102619 0.101312
0.0590289 0.102558 0.101258
0.0592292 0.102507 0.101221
0.0594293 0.102461 0.101191
0.0596291 0.10242 0.101168
0.059829 0.102379 0.101147
0.0600288 0.102341 0.101129
0.0602286 0.102303 0.101112
0.060428 0.102274 0.101107
0.0606288 0.102217 0.101061
0.0608296 0.102164 0.10102
0.0610311 0.102099 0.100959
0.0612318 0.102048 0.100922
0.0614336 0.10198 0.100857
0.061635 0.10192 0.100806
0.0618366 0.101857 0.10075
0.0620407 0.101755 0.100632
0.0622455 0.101643 0.100499
0.0624475 0.101578 0.100439
0.0626493 0.101517 0.100387
0.0628533 0.101425 0.100284
0.0630562 0.10135 0.100209
0.0632618 0.101236 0.100073
0.0634634 0.101184 0.100035
0.0636678 0.101091 0.0999311
0.0638703 0.101028 0.0998749
0.0640722 0.100974 0.0998323
0.0642756 0.1009 0.0997588
0.0644784 0.100836 0.0997007
0.0646837 0.100738 0.0995899
0.0648845 0.100704 0.0995781
0.0673711 0.0993761 0.0980123
0.0675745 0.0993228 0.0979715
0.067778 0.0992691 0.09793
0.0679816 0.0992145 0.0978873
0.0681853 0.0991605 0.0978454
0.0683892 0.099104 0.0977995
0.068593 0.099049 0.0977562
0.0761005 0.0959423 0.0944522
0.0763069 0.095892 0.0944168
0.0765131 0.0958426 0.0943828
0.0767202 0.0957872 0.0943395
0.0769274 0.0957304 0.0942941
0.0771344 0.0956766 0.0942533
0.0773417 0.0956204 0.0942087
0.0775486 0.0955678 0.0941699
0.0777557 0.0955146 0.09413
0.0779621 0.0954666 0.0940983
0.0781684 0.0954206 0.0940697
0.0783746 0.0953751 0.0940419
0.0785805 0.0953329 0.094019
-0.0163462 0.02676 -0.0338534
-0.0160681 0.0267757 -0.0337699
-0.0158023 0.0267298 -0.0337862
-0.0152616 0.028072 -0.0315554
-0.0149293 0.0283691 -0.0310168
-0.0146094 0.0286064 -0.0305751
-0.014165 0.0294829 -0.029099
-0.0138454 0.0297263 -0.0286475
-0.0135851 0.029666 -0.0286877
-0.0133025 0.029721 -0.0285412
-0.0129611 0.030083 -0.0278983
-0.0124669 0.0312483 -0.0259563
-0.00146858 0.0457573 -0.000752875
-0.000925237 0.0475227 0.00214577
-0.000670923 0.0475212 0.00219713
-0.000418354 0.0475091 0.00223152
-1.48043e-05 0.0484402 0.00378505
0.000258269 0.0485624 0.00403547
0.000496348 0.0484653 0.00393272
0.000747222 0.0484487 0.00395963
0.00116505 0.0494979 0.00570232
0.0014809 0.0499044 0.00641014
0.00175243 0.0500299 0.00666536
0.00275163 0.0516281 0.00939681
0.00305749 0.051994 0.0100386
0.00374676 0.0549089 0.0147807
0.00398189 0.0548264 0.0147003
0.00421677 0.0547416 0.0146163
0.0044215 0.0544526 0.0142039
0.00473866 0.0549241 0.0150144
0.00502841 0.0552142 0.0155332
0.00527337 0.0552004 0.0155632
0.00551577 0.055169 0.015565
0.00641043 0.0562531 0.0174638
0.00665544 0.0562473 0.0175064
0.00706826 0.0574369 0.0194696
0.00737459 0.0578783 0.0202304
0.00761653 0.0578614 0.020255
0.00792414 0.058321 0.0210447
0.00819665 0.0585304 0.0214326
0.00917765 0.0621809 0.0273963
0.00942967 0.0622675 0.0275863
0.00966477 0.062229 0.0275753
0.00990248 0.0622101 0.0275957
0.0101416 0.0622018 0.0276333
0.0103769 0.0621649 0.0276249
0.0106137 0.0621388 0.0276338
0.0108546 0.0621456 0.0276955
0.011094 0.0621399 0.0277371
0.0176284 0.0715639 0.0439803
0.0178713 0.0716747 0.0442064
0.0181164 0.0718081 0.0444687
0.0184176 0.0724715 0.0455785
0.0186856 0.0728315 0.0462029
0.0189302 0.0729743 0.0464799
0.0192198 0.0735538 0.047455
0.0194451 0.0735177 0.0474458
0.0197036 0.0738077 0.0479579
0.0199939 0.0744159 0.0489783
0.0202211 0.0744072 0.0490127
0.021112 0.0765206 0.0525338
0.0213457 0.0765986 0.0527064
0.0215782 0.0766665 0.0528626
0.0218957 0.0776261 0.0544429
0.0221259 0.0776804 0.0545773
0.0223463 0.0776322 0.0545479
0.0225756 0.0776788 0.0546701
0.0228052 0.0777304 0.0548001
0.0230895 0.078383 0.0558892
0.0233359 0.0786294 0.05633
0.0260689 0.0846818 0.0664525
0.0262906 0.0847232 0.0665648
0.0264971 0.0845752 0.0663751
0.0267078 0.0844784 0.0662672
0.0269248 0.0844598 0.0662837
0.0271478 0.0845184 0.0664234
0.0273684 0.0845482 0.0665173
0.0275865 0.0845466 0.0665609
0.0278015 0.0845038 0.066539
0.0299412 0.0871268 0.0711284
0.0302687 0.0888036 0.0738418
0.030493 0.0889572 0.0741315
0.0307094 0.088994 0.0742354
0.0309294 0.0890878 0.07443
0.0311462 0.0891353 0.0745507
0.0313606 0.0891453 0.074612
0.0322631 0.0935023 0.0816734
0.0325119 0.0941593 0.0827622
0.0327461 0.0945857 0.0834842
0.0329625 0.0947166 0.0837364
0.0331892 0.0950332 0.0842837
0.0334192 0.0954178 0.0849388
0.0336276 0.0954233 0.0849918
0.0338362 0.0954322 0.0850499
0.0340445 0.0954375 0.0851026
0.0355062 0.0955785 0.0856348
0.0357123 0.0955464 0.0856278
0.0359164 0.0954701 0.0855509
0.0361751 0.096608 0.0873999
0.0363814 0.0966011 0.0874329
0.0365889 0.0966208 0.0875079
0.0367955 0.0966227 0.0875548
0.0370026 0.0966385 0.0876236
0.0372094 0.0966474 0.0876815
0.0377241 0.0992555 0.0919031
0.037929 0.0992757 0.0919783
0.038133 0.0992744 0.0920197
0.0383366 0.0992613 0.0920422
0.0385419 0.0992975 0.0921429
0.0387475 0.0993435 0.092259
0.0389518 0.0993574 0.0923242
0.0391554 0.0993515 0.0923581
0.0410734 0.102657 0.0979778
0.041274 0.102654 0.0980156
0.0414762 0.102718 0.0981581
0.0416783 0.102786 0.0983096
0.0419053 0.103966 0.100218
0.0421051 0.103982 0.100285
0.0423043 0.103969 0.100307
0.0427343 0.105607 0.10298
0.0429326 0.105627 0.103055
0.0431313 0.10567 0.103164
0.043329 0.105663 0.103195
0.0435268 0.105665 0.10324
0.0437252 0.105709 0.103352
0.0439582 0.108203 0.107334
0.0441529 0.108137 0.107271
0.0443473 0.108037 0.107155
0.044542 0.107958 0.107072
0.0447371 0.1079 0.107023
0.0449325 0.107874 0.107021
0.0451278 0.107834 0.107001
0.0453231 0.107794 0.106979
0.0455185 0.10775 0.10695
0.0457139 0.107708 0.106927
0.0459093 0.107659 0.106891
0.0461046 0.107594 0.106829
0.0463 0.107517 0.106749
0.0464956 0.107465 0.106709
0.0466912 0.107424 0.106687
0.0468868 0.107351 0.106612
0.0470825 0.107306 0.106583
0.0472783 0.107253 0.106541
0.0474741 0.10719 0.106483
0.04767 0.107151 0.106463
0.0478658 0.107119 0.106455
0.0516248 0.104627 0.103324
0.0518228 0.104587 0.103302
0.05202 0.104583 0.103338
0.0522111 0.104875 0.103839
0.052408 0.104873 0.103878
0.0526057 0.104837 0.103863
0.0528032 0.104806 0.103857
0.0530004 0.104789 0.103872
0.0531979 0.104764 0.103873
0.0533955 0.104731 0.103863
0.0535929 0.104708 0.10387
0.0537907 0.104669 0.10385
0.0539891 0.10461 0.103798
0.0541869 0.104575 0.103786
0.0543858 0.104503 0.103715
0.0545843 0.104447 0.103669
0.0586065 0.102477 0.101417
0.0588073 0.102412 0.101358
0.0590075 0.102361 0.10132
0.0592076 0.102315 0.10129
0.0594077 0.102269 0.10126
0.0596077 0.102225 0.101233
0.0598076 0.102185 0.101212
0.0600074 0.102146 0.101193
0.0602075 0.102103 0.101168
0.0604075 0.102063 0.101147
0.0606083 0.102008 0.101104
0.0608086 0.101963 0.101075
0.0610111 0.10188 0.100987
0.0612119 0.101828 0.100948
0.0614134 0.101766 0.100892
0.0616159 0.101687 0.100812
0.0618185 0.10161 0.100733
0.0620225 0.101509 0.100617
0.0622248 0.10144 0.100551
0.0624282 0.101353 0.100458
0.0626312 0.101273 0.100375
0.062834 0.101201 0.100304
0.0630373 0.101121 0.100221
0.0632403 0.101046 0.100146
0.0634448 0.10095 0.100038
0.063648 0.100877 0.0999664
0.0638513 0.100802 0.0998909
0.064053 0.100751 0.0998546
0.0642555 0.100692 0.0998034
0.0644594 0.100611 0.0997194
0.0646649 0.100511 0.0996058
0.064868 0.100445 0.0995452
0.067347 0.0992186 0.0981385
0.0675505 0.0991643 0.0980962
0.067754 0.0991101 0.0980541
0.0679577 0.0990546 0.0980099
0.0681615 0.0989992 0.0979658
0.0758709 0.0958216 0.0945968
0.0760773 0.0957695 0.0945586
0.0762841 0.0957158 0.094518
0.0764905 0.0956652 0.0944822
0.0766982 0.0956039 0.0944297
0.0769063 0.0955399 0.0943731
0.0771136 0.0954832 0.0943279
0.0773208 0.0954283 0.0942854
0.0775287 0.0953679 0.0942345
0.0777358 0.0953138 0.0941934
0.0779427 0.0952627 0.0941567
0.0781511 0.0951996 0.0941016
0.0783567 0.0951596 0.0940824
0.0785646 0.0951015 0.0940351
-0.016451 0.0261612 -0.034311
-0.0161927 0.0260758 -0.034391
-0.0156776 0.0272815 -0.032383
-0.0153972 0.0273132 -0.0322738
-0.014989 0.0279929 -0.0311169
-0.0138724 0.0295163 -0.0284815
-0.0136109 0.0294626 -0.0285108
-0.0133175 0.0295736 -0.0282741
-0.012994 0.0298429 -0.0277816
-0.0126702 0.0301163 -0.0272825
-0.0121569 0.0313888 -0.0251695
-0.00178984 0.0453215 -0.00103208
-0.00149196 0.0455752 -0.000569352
-0.00121323 0.0457143 -0.000291461
-0.000761092 0.0469269 0.00171425
-0.000482591 0.0470739 0.00200467
-5.49778e-05 0.0481542 0.00379687
0.000218824 0.0482806 0.00405379
0.000464911 0.0482337 0.00403188
0.000703918 0.0481417 0.0039374
0.0014696 0.0498019 0.00671449
0.0017192 0.0497864 0.00674288
0.00217006 0.0510771 0.00887141
0.00244434 0.0512304 0.00917074
0.00274802 0.0515786 0.0097834
0.00303038 0.0517904 0.0101768
0.00396886 0.0547171 0.0149854
0.0042668 0.0550562 0.0155826
0.0045096 0.0550273 0.0155883
0.00475888 0.0550423 0.0156647
0.00500523 0.0550379 0.0157098
0.00524854 0.0550129 0.0157219
0.00548803 0.0549616 0.0156916
0.0057312 0.0549356 0.0157021
0.00609146 0.0557286 0.0170274
0.0063661 0.055929 0.0174012
0.00662109 0.0559931 0.0175561
0.0069501 0.0565855 0.0185588
0.00733578 0.0575917 0.0202253
0.00758621 0.0576354 0.0203471
0.0078974 0.0581209 0.0211776
0.00817835 0.0583919 0.0216641
0.00841963 0.0583754 0.0216891
0.00939935 0.0620409 0.0276703
0.00963936 0.062039 0.027718
0.00987621 0.0620136 0.0277281
0.0101118 0.0619787 0.027723
0.0103482 0.0619498 0.0277273
0.010586 0.0619321 0.0277497
0.010825 0.0619235 0.0277867
0.0110697 0.0619589 0.0278942
0.011316 0.0620086 0.0280245
0.0175974 0.0713237 0.0440268
0.017838 0.0714122 0.044217
0.0180791 0.0715084 0.0444196
0.0183685 0.0720605 0.0453505
0.0186365 0.0724187 0.0459716
0.0188859 0.072605 0.0463176
0.0191888 0.0733107 0.0474935
0.0194186 0.0733181 0.0475537
0.0196675 0.0735133 0.0479139
0.0199613 0.0741562 0.0489887
0.0201903 0.074165 0.0490511
0.0210823 0.0762867 0.052582
0.0213089 0.0762913 0.0526373
0.0215376 0.0763188 0.052729
0.0218705 0.0774383 0.054563
0.0221023 0.0775105 0.0547257
0.0223258 0.0774942 0.0547472
0.0225565 0.077557 0.0548951
0.022785 0.0775971 0.0550066
0.0230448 0.0779816 0.0556672
0.0232921 0.078235 0.0561187
0.0257947 0.0841227 0.065923
0.0260204 0.0842065 0.0661028
0.026245 0.0842807 0.0662672
0.0264645 0.0842917 0.066331
0.02668 0.0842548 0.0663185
0.0268988 0.0842586 0.0663708
0.02712 0.0842946 0.0664744
0.0273407 0.0843252 0.0665693
0.0275589 0.0843227 0.0666115
0.0277744 0.0842865 0.0666001
0.0279925 0.084285 0.066644
0.0294609 0.0865915 0.0705883
0.0296832 0.0866824 0.0707785
0.0299083 0.0868186 0.0710407
0.0306833 0.0887832 0.0742996
0.0309094 0.0889717 0.0746444
0.0311227 0.0889654 0.0746797
0.031335 0.0889419 0.0746875
0.0322384 0.0933108 0.0817609
0.0324828 0.0938921 0.0827284
0.033161 0.0947749 0.0842627
0.0333908 0.095156 0.0849117
0.0336026 0.0952211 0.0850591
0.0338093 0.0951956 0.0850627
0.034017 0.0951889 0.0850962
0.0352762 0.0954272 0.0857383
0.0354791 0.095329 0.0856266
0.0356852 0.0952941 0.0856153
0.0358921 0.0952789 0.0856353
0.0361473 0.0963354 0.0873535
0.0363576 0.0964174 0.0875273
0.0365659 0.0964567 0.0876333
0.0367731 0.0964734 0.0877036
0.0369796 0.0964746 0.0877492
0.0371867 0.0964904 0.0878179
0.0376964 0.0989669 0.0918271
0.0379029 0.0990261 0.0919641
0.0381069 0.0990219 0.0920007
0.0383108 0.0990175 0.092037
0.0385177 0.099096 0.0922044
0.0387227 0.0991253 0.0922941
0.0389271 0.0991404 0.0923612
0.0391317 0.0991608 0.0924367
0.039336 0.0991768 0.0925052
0.039786 0.100556 0.0947734
0.039988 0.100539 0.0947884
0.0414525 0.102514 0.0982106
0.0416593 0.102779 0.0986724
0.0418645 0.102993 0.0990521
0.0420811 0.103753 0.100295
0.0422842 0.103925 0.10061
0.0424841 0.103955 0.1007
0.0426982 0.104734 0.101972
0.0429088 0.105386 0.103044
0.0431074 0.105423 0.103144
0.0433053 0.105428 0.103194
0.0435035 0.105448 0.103268
0.043936 0.108046 0.107451
0.0441307 0.107978 0.107386
0.0443251 0.107886 0.107282
0.0445196 0.107787 0.107168
0.0447147 0.107728 0.107116
0.0449099 0.107685 0.107089
0.0451053 0.10765 0.107076
0.0453006 0.107599 0.107037
0.045496 0.107565 0.107025
0.0456914 0.107516 0.106989
0.0458867 0.107449 0.106925
0.0460821 0.107389 0.106871
0.0462775 0.107324 0.10681
0.0464731 0.107254 0.106743
0.0466688 0.107223 0.106735
0.0468644 0.107162 0.106681
0.0470601 0.107109 0.106638
0.0472559 0.107049 0.106585
0.0474517 0.107015 0.106573
0.0476476 0.106961 0.10653
0.0516045 0.104333 0.103229
0.0518028 0.104278 0.103186
0.052001 0.104235 0.10316
0.0521909 0.104595 0.103767
0.0523869 0.104642 0.103882
0.0525845 0.104606 0.103868
0.0527823 0.104569 0.103852
0.0529795 0.104555 0.103871
0.0531768 0.104535 0.103882
0.0533744 0.104507 0.10388
0.0535717 0.104487 0.10389
0.0537695 0.104453 0.103879
0.0539678 0.104399 0.103836
0.0545637 0.104216 0.103674
0.0547621 0.104166 0.103637
0.0549619 0.104075 0.103536
0.0551612 0.104002 0.103464
0.0553617 0.103895 0.103338
0.0555598 0.103863 0.10333
0.0583848 0.102332 0.101518
0.0585849 0.102283 0.101482
0.0587853 0.102227 0.101437
0.0589856 0.102176 0.101399
0.0591857 0.10213 0.101369
0.0593858 0.102082 0.101337
0.0595859 0.102038 0.101309
0.0597859 0.101995 0.101284
0.059986 0.101952 0.101259
0.0601862 0.101908 0.101232
0.0603865 0.101861 0.101201
0.0605873 0.101806 0.101157
0.0607885 0.101747 0.101107
0.0609905 0.101673 0.101033
0.0611918 0.101612 0.10098
0.0613933 0.101552 0.100927
0.0615958 0.101472 0.100845
0.061799 0.101384 0.10075
0.0620015 0.101311 0.100677
0.0622038 0.10124 0.10061
0.0624078 0.101145 0.100502
0.0630186 0.100887 0.100226
0.0632212 0.100819 0.100163
0.0634237 0.100755 0.100104
0.0636266 0.100685 0.100037
0.0638302 0.100607 0.0999568
0.0640328 0.100543 0.0999003
0.0642353 0.100483 0.0998485
0.064441 0.100379 0.099728
0.0646446 0.100304 0.0996537
0.0648497 0.100213 0.0995527
0.0650553 0.100113 0.0994397
0.0756402 0.0957098 0.0947549
0.0758472 0.095653 0.0947096
0.0760541 0.0955973 0.0946658
0.0762607 0.0955441 0.094626
0.0764679 0.0954865 0.0945793
0.0766754 0.0954279 0.0945313
0.0768842 0.0953578 0.0944653
0.077092 0.0952971 0.0944138
0.0772998 0.095237 0.0943633
0.0775072 0.0951807 0.0943189
0.0777165 0.0951089 0.0942504
0.077924 0.0950528 0.0942061
0.0781326 0.0949887 0.0941496
0.0783444 0.0948992 0.0940537
0.0785468 0.0948851 0.0940745
-0.0166634 0.0250257 -0.0356348
-0.0163793 0.0250655 -0.0355123
-0.0157053 0.0270674 -0.0322196
-0.0154147 0.0271503 -0.0320278
-0.0151542 0.0270814 -0.0320813
-0.014847 0.0272506 -0.0317503
-0.014451 0.0278757 -0.030683
-0.0141295 0.0281237 -0.0302249
-0.0137412 0.0287193 -0.0292056
-0.0133564 0.029302 -0.0282075
-0.0129752 0.0298723 -0.0272296
-0.0126824 0.0299848 -0.0269907
-0.0124263 0.0299056 -0.0270614
-0.00182347 0.0450768 -0.000948862
-0.00156074 0.0451155 -0.000832551
-0.000546442 0.046641 0.00178237
-9.24524e-05 0.0478851 0.00383602
0.000183633 0.0480255 0.00411531
0.00043028 0.0479819 0.00409876
0.00068509 0.04799 0.00416525
0.00106098 0.0487715 0.00547439
0.00198625 0.0514811 0.00993385
0.00222904 0.0514322 0.00990814
0.0024804 0.051439 0.00997197
0.00273655 0.0514776 0.0100868
0.00394402 0.0545289 0.0151437
0.00424244 0.0548714 0.0157457
0.00448586 0.0548468 0.0157583
0.00473277 0.0548459 0.0158091
0.00497421 0.054808 0.0158004
0.00521579 0.0547711 0.0157933
0.00545868 0.054743 0.0158003
0.00569931 0.0546992 0.0157823
0.00605187 0.0554383 0.0170198
0.00632258 0.0556106 0.0173481
0.00662119 0.0559828 0.0179969
0.00689539 0.0561861 0.0183748
0.00729004 0.0572553 0.0201408
0.00752612 0.0571948 0.0200955
0.00786685 0.0578931 0.0212663
0.00815059 0.0581844 0.0217847
0.00839669 0.0582033 0.0218664
0.00961137 0.0618297 0.0278298
0.00984756 0.0617993 0.0278319
0.0100829 0.0617626 0.0278239
0.0103195 0.0617349 0.0278302
0.0105573 0.0617168 0.0278519
0.010797 0.0617137 0.0278977
0.0110415 0.0617482 0.0280036
0.0112878 0.0617977 0.0281335
0.0178036 0.0711402 0.0442128
0.0180523 0.0713063 0.0445266
0.0183446 0.0718852 0.0454994
0.018607 0.0721907 0.0460357
0.0193898 0.0730967 0.047627
0.0196546 0.0734473 0.0482346
0.0199353 0.0739614 0.0491029
0.0201666 0.0739926 0.0492009
0.0210541 0.0760692 0.0526566
0.0212763 0.0760278 0.0526385
0.0214943 0.0759428 0.0525506
0.0217297 0.0760397 0.0527529
0.0220699 0.0772466 0.0547241
0.022309 0.0773964 0.0550105
0.0225718 0.0778056 0.05571
0.0228056 0.0779066 0.0559184
0.023046 0.0780831 0.0562469
0.0232771 0.0781605 0.0564177
0.0257697 0.0839346 0.0660313
0.0259886 0.0839361 0.0660801
0.026212 0.0839932 0.0662171
0.0264337 0.0840317 0.0663246
0.0266562 0.0840812 0.0664495
0.0268789 0.0841348 0.0665811
0.027096 0.0841181 0.0666007
0.0273162 0.0841419 0.0666847
0.0275331 0.0841236 0.0667019
0.0277478 0.0840773 0.0666744
0.0279638 0.0840462 0.0666711
0.02818 0.0840179 0.0666724
0.0289708 0.0859361 0.0698583
0.0292149 0.0863297 0.0705293
0.029434 0.0863735 0.0706446
0.0296528 0.0864128 0.0707527
0.0306589 0.0886001 0.0744077
0.0308836 0.0887676 0.0747189
0.0310984 0.0887831 0.0747887
0.0313104 0.0887554 0.07479
0.0315243 0.0887588 0.0748406
0.0322133 0.0931112 0.0818357
0.0327367 0.0912653 0.0790416
0.033366 0.0949583 0.0849864
0.0335767 0.0950028 0.085101
0.0337841 0.0949903 0.0851251
0.0339908 0.0949633 0.0851265
0.0341987 0.0949603 0.0851658
0.0344286 0.0953817 0.0858776
0.0356498 0.0948666 0.0853256
0.0358587 0.0948891 0.0854052
0.0361279 0.0962517 0.0876063
0.0363355 0.0962733 0.0876844
0.0365448 0.0963355 0.0878266
0.0367515 0.0963427 0.0878817
0.0369568 0.096315 0.0878816
0.0371633 0.0963162 0.0879272
0.0376704 0.098724 0.0918236
0.0378757 0.0987502 0.0919083
0.0380811 0.0987796 0.0919981
0.0382847 0.0987647 0.0920178
0.0384889 0.0987669 0.0920645
0.0386967 0.0988715 0.092273
0.0389023 0.0989195 0.0923922
0.0391071 0.0989449 0.0924755
0.0397626 0.100374 0.094864
0.0399645 0.100352 0.0948717
0.0401658 0.100309 0.094847
0.0416366 0.102614 0.0987853
0.0420398 0.10273 0.0990539
0.0424609 0.103765 0.100772
0.042667 0.104119 0.101372
0.0428766 0.104698 0.102328
0.0430814 0.105061 0.102941
0.0437187 0.107916 0.10757
0.0439137 0.107879 0.107553
0.0441083 0.107803 0.107475
0.0443027 0.10771 0.10737
0.0444973 0.107619 0.107267
0.0446922 0.107548 0.107197
0.0448875 0.107504 0.107169
0.0450828 0.107465 0.10715
0.0452781 0.107415 0.107112
0.0454735 0.107376 0.107093
0.0456687 0.107305 0.107022
0.0458642 0.107264 0.106998
0.0460595 0.107173 0.106897
0.0462551 0.107137 0.106881
0.0464506 0.107062 0.106805
0.0466462 0.106997 0.106745
0.046842 0.106949 0.10671
0.0470377 0.106905 0.106683
0.0472335 0.10685 0.106638
0.0474294 0.106805 0.106607
0.0515825 0.104131 0.103281
0.0517808 0.104077 0.103239
0.051979 0.104037 0.103217
0.0521689 0.104399 0.103827
0.0523656 0.104413 0.103891
0.0525632 0.104384 0.103887
0.0527608 0.104352 0.103878
0.0529581 0.104337 0.103897
0.0531557 0.104309 0.103894
0.0533531 0.104288 0.103904
0.053551 0.104249 0.103883
0.0537493 0.104196 0.103842
0.0539465 0.104184 0.103865
0.0541452 0.10412 0.103808
0.0543437 0.104065 0.103763
0.0545427 0.103994 0.103693
0.0547411 0.103947 0.103661
0.0549413 0.103844 0.103541
0.058363 0.102144 0.101592
0.0585629 0.102098 0.101562
0.0587633 0.102044 0.10152
0.0589635 0.101994 0.101484
0.0591637 0.101945 0.101449
0.0593639 0.101897 0.101417
0.059564 0.101852 0.101387
0.0597642 0.101806 0.101358
0.0599645 0.101758 0.101325
0.060165 0.101709 0.101291
0.0603654 0.10166 0.101256
0.0605669 0.101595 0.101196
0.0607681 0.101535 0.101144
0.0609696 0.101471 0.101087
0.0611712 0.101405 0.101027
0.0613732 0.101334 0.100958
0.0615744 0.101281 0.100916
0.0617777 0.101191 0.100818
0.062388 0.100926 0.100531
0.0625904 0.100858 0.100467
0.0627942 0.10077 0.100371
0.0629972 0.100695 0.100296
0.0632013 0.100605 0.100198
0.0634046 0.100528 0.100121
0.0636078 0.100456 0.100049
0.0638108 0.100386 0.0999831
0.0640141 0.100314 0.0999125
0.0642171 0.100247 0.09985
0.0644198 0.100185 0.0997962
0.064626 0.100075 0.0996671
0.0648307 0.0999873 0.0995721
0.0650375 0.0998731 0.0994362
0.06524 0.0998194 0.0993948
0.0654479 0.0996945 0.0992424
0.0754096 0.0955985 0.0949139
0.0756163 0.0955434 0.0948711
0.0758235 0.0954848 0.0948229
0.0760303 0.0954293 0.0947796
0.0762371 0.0953751 0.0947383
0.0764447 0.0953137 0.0946858
0.0766534 0.0952443 0.094621
0.0768624 0.0951731 0.0945535
0.0770706 0.0951088 0.0944965
0.0772795 0.0950394 0.0944317
0.0774895 0.094962 0.0943546
0.0776992 0.0948872 0.0942815
0.0779087 0.0948155 0.0942132
0.0781138 0.0947798 0.0942006
0.0783216 0.0947224 0.0941545
0.0785325 0.0946409 0.0940711
-0.0171711 0.0237985 -0.0371619
-0.0168745 0.0238959 -0.0369465
-0.0164038 0.0248671 -0.0353203
-0.016044 0.0252888 -0.0345815
-0.0154701 0.0267961 -0.0320907
-0.0151943 0.0268047 -0.0320192
-0.0148188 0.0273214 -0.0311277
-0.0144897 0.0276054 -0.0306119
-0.0140508 0.0284574 -0.0291798
-0.0137713 0.0284933 -0.0290645
-0.0132698 0.029682 -0.0270899
-0.012954 0.029914 -0.0266586
-0.0126785 0.029937 -0.0265644
-0.00185424 0.0448495 -0.000837595
-0.00159332 0.0448771 -0.000739268
-0.00127635 0.0452499 -8.62395e-05
-0.00102227 0.0452383 -5.0914e-05
-0.000568595 0.0464673 0.00197691
-0.00029514 0.0465837 0.00221766
0.000115842 0.0475657 0.00384811
0.00038629 0.0476711 0.00407082
0.000831025 0.0488846 0.00607248
0.00106706 0.0487793 0.00595667
0.00171176 0.0512966 0.0100503
0.00196426 0.0513104 0.0101252
0.00220767 0.0512657 0.0101064
0.00245973 0.0512774 0.0101778
0.00271124 0.0512858 0.0102442
0.0029773 0.0513907 0.0104652
0.00321064 0.05128 0.0103404
0.00421021 0.0546338 0.015824
0.00445814 0.0546395 0.0158852
0.00470449 0.0546348 0.0159298
0.00494429 0.0545858 0.0159033
0.00518445 0.0545389 0.0158802
0.00542792 0.0545147 0.0158935
0.00567189 0.054494 0.0159126
0.00601351 0.0551566 0.0170262
0.00629574 0.0554095 0.0174834
0.00658168 0.055692 0.017988
0.0068317 0.0557226 0.0180888
0.00723471 0.0568502 0.0199466
0.00749088 0.0569334 0.0201314
0.00774217 0.0569824 0.0202615
0.00812219 0.0579722 0.0218978
0.00840385 0.0582522 0.0223975
0.00866131 0.0583573 0.022617
0.00981534 0.0615581 0.0278926
0.0100223 0.0613057 0.0275395
0.0102405 0.0611364 0.0273194
0.0105107 0.0613648 0.0277355
0.0107616 0.061447 0.0279177
0.0110156 0.0615543 0.02814
0.0112604 0.0615923 0.0282515
0.0177746 0.0709182 0.0442884
0.0180215 0.0710677 0.0445755
0.0183398 0.0718904 0.0459362
0.0185862 0.0720456 0.0462321
0.0188196 0.072079 0.0463339
0.0190589 0.0721718 0.0465304
0.019304 0.072321 0.0468167
0.0196742 0.0736987 0.0490608
0.0199075 0.0737481 0.0491877
0.0201396 0.073787 0.0492979
0.0204238 0.0743506 0.050244
0.0206583 0.0744202 0.050403
0.021028 0.0758718 0.0527631
0.0212467 0.075795 0.0526886
0.0214649 0.075712 0.0526042
0.0216842 0.0756395 0.0525366
0.0219046 0.075578 0.0524865
0.0225723 0.0778932 0.0562673
0.0228025 0.0779589 0.0564192
0.0230317 0.078014 0.0565543
0.0232544 0.0779997 0.056579
0.0257434 0.0837305 0.0661144
0.0259635 0.0837468 0.0661865
0.0261926 0.0838738 0.0664346
0.0264155 0.0839286 0.0665678
0.0266374 0.083971 0.0666814
0.0268577 0.0839956 0.0667665
0.027074 0.0839692 0.0667707
0.0272911 0.0839526 0.0667906
0.0275062 0.08391 0.0667691
0.027722 0.083877 0.0667628
0.0279373 0.0838374 0.0667461
0.0281521 0.0837903 0.0667175
0.0289506 0.0858146 0.0700686
0.0291917 0.0861654 0.0706711
0.0294132 0.0862436 0.0708409
0.0296305 0.0862624 0.0709163
0.0298579 0.0864319 0.0712309
0.0300769 0.0864796 0.0713522
0.0303033 0.0866424 0.0716561
0.0306246 0.0882652 0.0742751
0.0308515 0.0884642 0.074636
0.0310732 0.0885871 0.0748761
0.031287 0.0885869 0.0749209
0.0314998 0.0885718 0.0749422
0.0317473 0.0891277 0.0758686
0.0324477 0.0901691 0.0776538
0.0326811 0.0905383 0.0782836
0.0329176 0.0909719 0.0790153
0.0335505 0.09478 0.0851358
0.0337586 0.0947789 0.0851782
0.0339663 0.09477 0.0852081
0.0345033 0.0930612 0.0826353
0.0347143 0.0930929 0.0827297
0.0349279 0.093178 0.0829087
0.0351676 0.0938074 0.0839488
0.0353896 0.094087 0.0844354
0.0355981 0.0940891 0.0844829
0.0357991 0.0939288 0.0842732
0.0361121 0.0962458 0.0879821
0.0363163 0.0961954 0.087946
0.0365247 0.0962384 0.0880577
0.0367316 0.0962495 0.088119
0.0369368 0.096223 0.0881208
0.037142 0.0961941 0.0881187
0.0376458 0.0985149 0.0918738
0.0378499 0.0985095 0.0919086
0.038055 0.0985306 0.0919852
0.038258 0.098496 0.0919737
0.0384616 0.0984806 0.0919925
0.0386656 0.0984724 0.0920228
0.0388714 0.0985221 0.0921446
0.0390829 0.098742 0.0925349
0.0392886 0.0987989 0.0926679
0.0397388 0.100176 0.0949289
0.0399399 0.100128 0.0948952
0.0401409 0.100076 0.0948562
0.0430553 0.104692 0.10273
0.0435011 0.107772 0.107666
0.0436961 0.107733 0.107646
0.0438914 0.107708 0.107649
0.0440859 0.107626 0.107561
0.0442803 0.107535 0.107459
0.0444749 0.107447 0.107361
0.0446697 0.107367 0.107277
0.044865 0.107319 0.107242
0.0450603 0.107275 0.107215
0.0452556 0.107223 0.107174
0.0454509 0.107176 0.107142
0.0456462 0.10711 0.10708
0.0458417 0.107061 0.107045
0.046037 0.10697 0.106942
0.0462325 0.10691 0.10689
0.0464282 0.106872 0.106871
0.0466238 0.106802 0.106802
0.0468196 0.106762 0.106782
0.0470153 0.106694 0.106716
0.0472112 0.106639 0.106671
0.0474071 0.106616 0.106676
0.0515614 0.103883 0.103259
0.0517597 0.10383 0.103219
0.0519576 0.103804 0.103219
0.0521515 0.103975 0.10353
0.0523442 0.10419 0.103908
0.0525416 0.104173 0.103923
0.0527393 0.104138 0.103911
0.0529368 0.104118 0.103921
0.053134 0.104104 0.103941
0.0533317 0.104075 0.103937
0.0535296 0.104037 0.10392
0.0537277 0.103992 0.10389
0.0539251 0.103975 0.103905
0.0541233 0.103928 0.103873
0.0543228 0.10384 0.103777
0.0545219 0.103767 0.103705
0.0547206 0.103713 0.103663
0.0553208 0.103429 0.103343
0.055517 0.103457 0.103428
0.0579403 0.102072 0.101765
0.0581405 0.102018 0.101723
0.0583404 0.101971 0.101692
0.0585405 0.101922 0.101656
0.0587407 0.10187 0.101618
0.0589412 0.101816 0.101575
0.0591414 0.101766 0.101539
0.0593417 0.101718 0.101505
0.0595419 0.101669 0.101471
0.0597424 0.101619 0.101435
0.0599429 0.101568 0.101397
0.0601436 0.101514 0.101355
0.0603439 0.101468 0.101325
0.0605451 0.101407 0.101272
0.0607472 0.101331 0.101196
0.060949 0.101263 0.101132
0.061151 0.10119 0.10106
0.0613531 0.101121 0.100993
0.0615561 0.101034 0.1009
0.0617589 0.100955 0.100819
0.0619614 0.10088 0.100744
0.0621651 0.100788 0.100643
0.0623679 0.100714 0.100569
0.0625726 0.100609 0.100447
0.0627759 0.100528 0.100364
0.0629771 0.100483 0.100335
0.0631812 0.100393 0.100237
0.0633843 0.10032 0.100166
0.0635874 0.100248 0.100096
0.0637912 0.100168 0.100013
0.0639939 0.100105 0.0999573
0.0641993 0.100003 0.0998401
0.0643989 0.0999874 0.0998581
0.0646051 0.0998769 0.0997281
0.0648093 0.0997976 0.0996468
0.0650146 0.0997038 0.099543
0.0652218 0.0995858 0.0994014
0.0654263 0.0995065 0.0993201
0.0656324 0.0994065 0.0992067
0.0658377 0.0993192 0.0991131
0.0747668 0.0955899 0.0951466
0.0749731 0.0955376 0.0951081
0.0751793 0.095485 0.0950693
0.0753859 0.0954306 0.0950276
0.0755924 0.0953767 0.0949868
0.0757999 0.0953148 0.0949336
0.0760068 0.0952596 0.0948907
0.0762137 0.0952035 0.0948465
0.0764221 0.0951359 0.0947845
0.0766321 0.095055 0.094702
0.0768411 0.0949841 0.0946349
0.077052 0.0948976 0.0945437
0.0772623 0.0948167 0.0944613
0.0774724 0.094738 0.0943822
0.0776859 0.0946333 0.094263
0.0778962 0.0945551 0.0941848
0.0780996 0.0945333 0.0941937
0.0783095 0.0944593 0.094122
0.0785132 0.0944359 0.0941285
-0.0172284 0.023436 -0.037233
-0.0169517 0.0234339 -0.037178
-0.0164919 0.0243498 -0.0356427
-0.0160467 0.0251999 -0.0342138
-0.0157552 0.0252814 -0.0340244
-0.0144729 0.0276197 -0.030082
-0.0140774 0.0282494 -0.0290095
-0.0137911 0.0283207 -0.0288374
-0.0134174 0.0288467 -0.0279325
-0.0129688 0.0297681 -0.0263909
-0.0127074 0.029718 -0.0264146
-0.0124332 0.0297347 -0.0263305
-0.00189667 0.0445513 -0.000840256
-0.00161695 0.0446935 -0.000557949
-0.00130755 0.04502 1.99843e-05
-0.00105611 0.0449919 2.89381e-05
-0.000580702 0.046356 0.00227151
-0.000333451 0.0463093 0.00225024
-4.91496e-05 0.0464952 0.00260215
0.000283472 0.0469886 0.00344723
0.000570113 0.0471958 0.00383295
0.00104343 0.0485974 0.00613421
0.00169058 0.0511309 0.0102496
0.00193412 0.0510871 0.0102322
0.00217776 0.0510438 0.0102156
0.00242916 0.0510511 0.0102799
0.00267801 0.051042 0.0103181
0.00292066 0.0509923 0.0102912
0.00317327 0.0510084 0.0103697
0.00442555 0.0543993 0.0159594
0.00467274 0.0544002 0.0160129
0.00492042 0.0544048 0.0160723
0.00515938 0.0543498 0.0160363
0.005397 0.0542853 0.015985
0.00561974 0.0541169 0.0157675
0.00587561 0.0541786 0.0159184
0.00627776 0.0552708 0.0177185
0.00654849 0.0554461 0.018051
0.00685736 0.0558956 0.018822
0.00710914 0.0559418 0.0189477
0.00745214 0.0566466 0.020127
0.00769242 0.0566153 0.0201286
0.00807157 0.0575978 0.0217515
0.00836269 0.0579463 0.0223602
0.00863439 0.058156 0.0227468
0.00887399 0.0581299 0.0227564
0.00920732 0.0588055 0.0238877
0.00964629 0.0602859 0.0263055
0.00991026 0.060459 0.026633
0.0101624 0.0605446 0.0268205
