0.0556045 0.119226 0.107083
0.0550986 0.119353 0.106981
0.0748704 0.119337 0.0963446
0.0748936 0.11919 0.0967425
0.0740128 0.119089 0.0974588
0.0735463 0.119188 0.0974152
0.0732131 0.11922 0.0974918
0.0731172 0.119132 0.097783
0.0725795 0.119268 0.097674
0.0727332 0.119054 0.0981915
0.0720477 0.119264 0.0979479
0.0719896 0.119157 0.0982735
0.0718944 0.119069 0.0985656
0.071314 0.119227 0.0984161
0.0713309 0.119082 0.0988104
0.0710789 0.119073 0.0989597
0.0705045 0.119228 0.0988145
0.0701095 0.119292 0.0988328
0.0698757 0.119001 0.099757
0.0608583 0.119242 0.103578
0.060398 0.119343 0.103527
0.0601696 0.119324 0.103694
0.0600354 0.119256 0.103951
0.0595226 0.119384 0.103848
0.0594322 0.119293 0.104146
0.0589272 0.119418 0.104051
0.0590525 0.119215 0.104554
0.0587091 0.119256 0.104612
0.0580454 0.119188 0.105133
0.0578741 0.119139 0.105354
0.0573693 0.119265 0.105257
0.0569626 0.119339 0.105253
0.0566259 0.119377 0.105315
0.056356 0.11938 0.105442
0.0561091 0.119371 0.10559
0.0561361 0.119219 0.106002
0.05584 0.119236 0.106103
0.0556147 0.119215 0.106272
0.0552895 0.119247 0.106345
0.0554208 0.11904 0.106857
0.0461879 0.123619 0.0987145
0.0460382 0.123561 0.0989487
0.0752683 0.119261 0.0955186
0.0747607 0.11938 0.0954398
0.0745914 0.119194 0.0960406
0.0738756 0.119146 0.0965271
0.0730699 0.119145 0.0969319
0.0728561 0.119117 0.0971161
0.0726175 0.119101 0.0972779
0.0724734 0.119038 0.0975252
0.0722082 0.119036 0.0976628
0.0720782 0.118965 0.097923
0.0720295 0.118854 0.0982572
0.0711502 0.119163 0.0978363
0.0707226 0.119243 0.0978254
0.0706034 0.119167 0.0980951
0.0702061 0.119232 0.0981114
0.0701087 0.119146 0.098401
0.0696687 0.119233 0.0983779
0.0697466 0.119057 0.098828
0.0695695 0.11901 0.099045
0.0692553 0.119034 0.0991366
0.0690418 0.119006 0.0993203
0.0683769 0.119208 0.0990896
0.0681611 0.119181 0.0992707
0.0677325 0.119263 0.0992562
0.0677575 0.119114 0.0996588
0.0611107 0.118966 0.103384
0.0604807 0.119155 0.103172
0.0597784 0.119382 0.102892
0.059953 0.119154 0.10344
0.0595378 0.119232 0.10343
0.0591621 0.119289 0.103457
0.0590404 0.119215 0.103725
0.0585494 0.119333 0.103643
0.0584988 0.119221 0.103978
0.0583454 0.119163 0.104216
0.0578662 0.119275 0.104144
0.0574821 0.119338 0.104162
0.0573173 0.119286 0.104389
0.0572518 0.119182 0.104711
0.0569099 0.119223 0.104769
0.0565915 0.119251 0.104849
0.0564635 0.11918 0.105111
0.0562237 0.119167 0.105267
0.0556663 0.119321 0.105117
0.0557488 0.119139 0.105581
0.0553287 0.119222 0.105563
0.0551881 0.119157 0.105813
0.0549079 0.119166 0.105929
0.0460155 0.123433 0.098501
0.0781457 0.119163 0.0935237
0.0749317 0.119146 0.0951637
0.0741134 0.119151 0.0955579
0.0739122 0.119116 0.0957534
0.0736946 0.11909 0.0959342
0.0730979 0.119255 0.0957734
0.0728363 0.119251 0.0959141
0.072804 0.119132 0.0962617
0.072419 0.11919 0.0962909
0.0710923 0.119045 0.0973532
0.0705107 0.119203 0.0972024
0.0701181 0.119267 0.0972229
0.0700139 0.119183 0.0975058
0.0696818 0.119216 0.0975811
0.0695482 0.119147 0.0978372
0.0690564 0.119261 0.0977664
0.0692513 0.119025 0.098323
0.0686943 0.119173 0.098192
0.0682609 0.119257 0.0981737
0.0682382 0.119132 0.0985315
0.0680301 0.119102 0.0987195
0.0675876 0.119191 0.0986922
0.0673662 0.119167 0.0988678
0.0670674 0.119184 0.098972
0.0670306 0.119066 0.0993176
0.0661384 0.119385 0.0988745
0.0658855 0.119378 0.0990204
0.0601959 0.119296 0.102089
0.0597681 0.11938 0.102068
0.0591968 0.119265 0.102675
0.0591406 0.119156 0.103005
0.0586243 0.119287 0.102898
0.0586375 0.119143 0.103294
0.0583937 0.119132 0.103446
0.058008 0.119195 0.103463
0.0577299 0.119202 0.103582
0.0576302 0.119116 0.103871
0.0571069 0.119252 0.103756
0.0572009 0.119065 0.104229
0.05641 0.11934 0.103859
0.0564485 0.119182 0.104279
0.0557416 0.119138 0.104756
0.0559051 0.118914 0.105298
0.0552725 0.119108 0.105076
0.0551217 0.119048 0.105316
0.0454921 0.123568 0.0975706
0.045289 0.123539 0.0977525
0.0785187 0.119099 0.0926765
0.0783805 0.119032 0.0929284
0.0782432 0.118966 0.0931812
0.0778269 0.119038 0.093187
0.0776443 0.118994 0.0933997
0.0764459 0.119188 0.0934594
0.07631 0.11912 0.0937131
0.0759748 0.119153 0.0937895
0.0758955 0.119057 0.0940938
0.0754459 0.119147 0.0940678
0.0754137 0.119028 0.0944143
0.0750155 0.119092 0.0944338
0.0745551 0.118917 0.0951487
0.0738243 0.119149 0.094869
0.0735966 0.119128 0.0950404
0.0734182 0.119082 0.095256
0.0725053 0.119135 0.0955627
0.072098 0.119205 0.0955717
0.0720262 0.119105 0.0958833
0.0717649 0.119102 0.0960238
0.0715195 0.11909 0.0961786
0.0709266 0.119254 0.0960186
0.0704341 0.119096 0.0967028
0.0693814 0.119222 0.0968774
0.0694229 0.119064 0.0972929
0.0689319 0.119178 0.0972227
0.068422 0.119029 0.0978908
0.0683149 0.118947 0.0981713
0.0676538 0.119148 0.0979439
0.0676808 0.118997 0.0983473
0.0673227 0.119044 0.0983972
0.0669206 0.119113 0.0984065
0.0665154 0.119183 0.0984126
0.0662834 0.119165 0.0985778
0.0660538 0.119146 0.0987453
0.0657589 0.119161 0.0988523
0.0651071 0.119358 0.0986295
0.0652299 0.119159 0.0991222
0.064737 0.119275 0.0990457
0.0644701 0.119275 0.0991779
0.0639986 0.119381 0.0991204
0.0626033 0.119141 0.100483
0.0621391 0.119244 0.10043
0.0611709 0.119195 0.101047
0.0608448 0.119227 0.101123
0.0607992 0.119113 0.101461
0.0604918 0.119135 0.101554
0.0604352 0.119027 0.101882
0.0600677 0.11908 0.101918
0.0595314 0.119222 0.101795
0.0595494 0.119075 0.102194
0.0591073 0.119167 0.102159
0.0589353 0.119119 0.102378
0.0587229 0.119092 0.10256
0.0584232 0.11911 0.102659
0.0581956 0.119091 0.102826
0.057696 0.119214 0.102734
0.0575186 0.119169 0.102949
0.0573205 0.119134 0.103144
0.0573529 0.118979 0.103558
0.0571452 0.11895 0.103744
0.056788 0.118999 0.103787
0.0561568 0.119191 0.103568
0.055779 0.119113 0.103975
0.0553139 0.118942 0.104682
0.0549679 0.118986 0.104735
0.0550766 0.11879 0.105224
0.0451965 0.123447 0.0972385
0.0785428 0.118938 0.0922695
0.0783426 0.118903 0.0924665
0.0780088 0.118934 0.0925455
0.0777756 0.118916 0.0927131
0.0775278 0.118904 0.0928678
0.0772015 0.118932 0.0929529
0.0771162 0.11884 0.0932516
0.0766734 0.118926 0.093233
0.0763924 0.118931 0.0933578
0.0761673 0.118909 0.0935322
0.0758134 0.118951 0.0935919
0.0756223 0.118911 0.0937964
0.0753129 0.118931 0.0938954
0.0750215 0.118942 0.0940103
0.0747581 0.118938 0.0941501
0.0744856 0.11894 0.0942817
0.0743112 0.118892 0.0945009
0.0739635 0.118931 0.0945649
0.0736894 0.118934 0.0946947
0.0735015 0.118893 0.0949018
0.0730608 0.118979 0.0948816
0.0728658 0.118942 0.0950821
0.072546 0.118968 0.0951703
0.0723114 0.11895 0.095335
0.0720896 0.118926 0.0955112
0.0718492 0.118912 0.0956706
0.0714061 0.119001 0.0956467
0.0711047 0.119017 0.0957506
0.0709985 0.118935 0.0960311
0.0706164 0.118993 0.0960617
0.0705109 0.11891 0.0963429
0.0700449 0.119011 0.096297
0.0698843 0.118956 0.0965281
0.0695235 0.119003 0.0965772
0.0692109 0.119026 0.0966699
0.0690725 0.11896 0.0969213
0.0687044 0.119011 0.0969631
0.0685264 0.118966 0.0971783
0.0682191 0.118986 0.0972753
0.0678817 0.119022 0.0973446
0.0676549 0.119001 0.097515
0.0674472 0.118971 0.0977028
0.0671666 0.118978 0.0978237
0.0669017 0.118976 0.097959
0.0660741 0.11899 0.0983336
0.0657617 0.119014 0.0984246
0.0652346 0.119147 0.0983173
0.0649723 0.119145 0.0984539
0.0646723 0.119163 0.0985556
0.0645184 0.119105 0.0987924
0.0642241 0.11912 0.0988992
0.0640254 0.119085 0.0990944
0.0631539 0.119123 0.0994241
0.0629567 0.119088 0.0996206
0.0626274 0.119121 0.099694
0.0623561 0.119124 0.0998212
0.062213 0.119061 0.100068
0.0618761 0.119098 0.100134
0.0616494 0.119078 0.100303
0.061425 0.119056 0.100473
0.0609085 0.119187 0.10037
0.0609277 0.11904 0.100769
0.0604872 0.119131 0.100737
0.0604132 0.119032 0.101049
0.059577 0.119054 0.101406
0.0594384 0.118988 0.101657
0.0592114 0.118969 0.101825
0.0589756 0.118954 0.101985
0.0587566 0.11893 0.10216
0.057789 0.119159 0.102009
0.057347 0.119252 0.101972
0.0570781 0.119255 0.102099
0.0568764 0.118947 0.103055
0.0567214 0.11889 0.103291
0.0562699 0.118988 0.103244
0.0556343 0.119184 0.103021
0.0547163 0.119251 0.103293
0.0545047 0.119224 0.103474
0.0547055 0.118981 0.10405
0.0544636 0.118969 0.104202
0.0451847 0.123585 0.0960486
0.0448904 0.123605 0.0961421
0.0447587 0.123538 0.0963921
0.0786767 0.118723 0.0919595
0.0784388 0.118707 0.0921233
0.078169 0.118706 0.0922588
0.0779583 0.118676 0.0924464
0.0776759 0.118682 0.0925706
0.0774767 0.118647 0.0927683
0.0772074 0.118646 0.0929039
0.0768315 0.118699 0.0929449
0.0765353 0.118712 0.0930563
0.0762703 0.118709 0.0931953
0.0760173 0.118701 0.0933449
0.0757665 0.118691 0.0934963
0.0754425 0.118718 0.0935824
0.0751386 0.118735 0.0936862
0.074992 0.118673 0.0939304
0.0745968 0.118737 0.0939524
0.0743816 0.118709 0.0941351
0.0741132 0.118709 0.0942702
0.0738434 0.118709 0.0944039
0.0736477 0.118672 0.094604
0.0732371 0.118743 0.0946111
0.0730297 0.118712 0.0948005
0.0726862 0.11875 0.0948674
0.0723902 0.118764 0.0949769
0.0721523 0.118748 0.0951386
0.0718854 0.118747 0.0952741
0.0716351 0.118738 0.0954244
0.0712415 0.118801 0.0954451
0.0710208 0.118777 0.095622
0.0707274 0.11879 0.095733
0.0704651 0.118787 0.095872
0.0702062 0.118782 0.096014
0.069945 0.118779 0.0961538
0.0697393 0.118747 0.0963439
0.069461 0.118752 0.096468
0.0691684 0.118765 0.0965791
0.0688253 0.118804 0.0966438
0.0685816 0.118791 0.096799
0.0682494 0.118824 0.0968734
0.0680406 0.118795 0.0970602
0.067771 0.118796 0.0971914
0.0674645 0.118816 0.0972888
0.067213 0.118808 0.0974364
0.0668622 0.118851 0.0974928
0.0666675 0.118814 0.0976923
0.0663545 0.118838 0.0977831
0.0661069 0.118828 0.0979338
0.0658124 0.118842 0.0980413
0.0655247 0.118853 0.0981549
0.0653187 0.118822 0.0983437
0.0649493 0.118875 0.0983816
0.0647024 0.118865 0.0985324
0.0643678 0.1189 0.0986021
0.0641121 0.118895 0.0987446
0.0638892 0.118873 0.0989174
0.0635435 0.118914 0.0989762
0.063385 0.118859 0.0992086
0.0629944 0.118923 0.0992253
0.0627407 0.118917 0.0993691
0.0624931 0.118908 0.0995184
0.0622932 0.118874 0.0997122
0.0619448 0.118917 0.0997674
0.0616273 0.118944 0.0998512
0.0613373 0.118957 0.0999605
0.0611434 0.118921 0.10016
0.0608201 0.118951 0.100238
0.060485 0.118987 0.100304
0.0602808 0.118956 0.100493
0.0600616 0.118932 0.100668
0.0598242 0.118918 0.100827
0.0594095 0.118997 0.100818
0.0593459 0.118892 0.101139
0.0590867 0.118889 0.101276
0.0585173 0.119049 0.101121
0.0583297 0.119009 0.101325
0.0579707 0.119058 0.101367
0.0578695 0.118973 0.101653
0.0575939 0.11898 0.101775
0.0575079 0.118887 0.102075
0.0570244 0.119002 0.101999
0.0569006 0.118929 0.102264
0.056416 0.119044 0.102186
0.0561802 0.11903 0.102344
0.0559042 0.119037 0.102464
0.0556671 0.119023 0.102621
0.0553744 0.119039 0.102724
0.055156 0.119015 0.102899
0.0549004 0.119012 0.103038
0.0546725 0.118993 0.103203
0.0543344 0.119033 0.103263
0.0541729 0.11898 0.103491
0.0541034 0.118878 0.103809
0.0449856 0.123414 0.09581
0.0447694 0.123393 0.0959786
0.0456986 0.118901 0.107973
0.0452208 0.119018 0.107888
0.0452897 0.118841 0.108345
0.0448261 0.118951 0.108274
0.078895 0.118466 0.0917238
0.0786016 0.118478 0.0918387
0.078406 0.11844 0.0920398
0.0780805 0.118467 0.0921262
0.0778749 0.118435 0.0923183
0.0776304 0.118422 0.092476
0.077411 0.118396 0.0926559
0.0771413 0.118396 0.0927911
0.0766495 0.118507 0.0927293
0.0765386 0.118427 0.0930052
0.076181 0.118471 0.093062
0.0759602 0.118446 0.0932401
0.0756837 0.118449 0.0933687
0.0753951 0.118459 0.0934863
0.0751394 0.118452 0.0936332
0.0748033 0.118485 0.0937082
0.0745486 0.118478 0.0938558
0.0742833 0.118476 0.0939937
0.0740269 0.118469 0.0941395
0.0737411 0.118478 0.0942588
0.0734237 0.118502 0.0943497
0.0731705 0.118494 0.094498
0.0728768 0.118506 0.0946099
0.0726038 0.118509 0.0947402
0.0722907 0.118531 0.0948343
0.072031 0.118527 0.0949763
0.071766 0.118525 0.0951135
0.0715007 0.118523 0.0952503
0.0711633 0.118558 0.0953218
0.0708579 0.118577 0.095422
0.0706412 0.118551 0.0956024
0.070376 0.118549 0.0957387
0.0701006 0.118553 0.0958657
0.0698598 0.118539 0.0960241
0.0695591 0.118556 0.0961279
0.0693342 0.118534 0.0963005
0.0690574 0.118539 0.0964258
0.0686929 0.118589 0.096471
0.0684298 0.118586 0.0966084
0.0681979 0.118568 0.0967744
0.0678775 0.118595 0.0968593
0.0676454 0.118578 0.0970247
0.0673313 0.118602 0.0971151
0.0670175 0.118626 0.0972055
0.0668093 0.118596 0.0973927
0.0664722 0.118632 0.0974614
0.066248 0.11861 0.0976337
0.0658934 0.118655 0.097686
0.0656564 0.11864 0.0978462
0.065339 0.118666 0.0979324
0.0651553 0.118624 0.0981417
0.0648309 0.118654 0.0982212
0.0646047 0.118633 0.0983911
0.0643238 0.118641 0.0985104
0.0640245 0.118658 0.0986125
0.063757 0.118659 0.0987439
0.0634595 0.118676 0.0988474
0.0631462 0.1187 0.098936
0.0629006 0.11869 0.0990874
0.0626466 0.118684 0.0992309
0.0623191 0.118716 0.0993059
0.0621285 0.118678 0.0995083
0.0618095 0.118705 0.0995909
0.0615592 0.118698 0.0997374
0.0611037 0.118797 0.0996919
0.0609287 0.11875 0.0999086
0.0606876 0.118738 0.100063
0.0603802 0.11876 0.100156
0.060138 0.118749 0.100309
0.0598694 0.118751 0.100438
0.0596543 0.118725 0.100617
0.0592365 0.118805 0.100605
0.0590196 0.11878 0.100782
0.0587771 0.118769 0.100935
0.0585129 0.118769 0.101067
0.0582245 0.118782 0.101176
0.057987 0.118768 0.101333
0.0577115 0.118774 0.101455
0.0574662 0.118765 0.101604
0.057163 0.118786 0.101699
0.0569155 0.118777 0.101846
0.0565693 0.118821 0.1019
0.0563388 0.118804 0.102063
0.0560942 0.118794 0.102213
0.0558363 0.118791 0.10235
0.0555464 0.118805 0.102457
0.0552766 0.118809 0.102582
0.0550092 0.118811 0.10271
0.0547533 0.118808 0.102848
0.0545186 0.118793 0.103007
0.0542414 0.118801 0.103125
0.054026 0.118776 0.103302
0.0538228 0.118744 0.103491
0.0446676 0.123442 0.095081
0.0443937 0.123451 0.0951937
0.0455238 0.118854 0.107366
0.0454096 0.118776 0.107641
0.0448062 0.118681 0.108208
0.0790647 0.118233 0.0914452
0.0788164 0.118222 0.0915999
0.0785723 0.118209 0.0917583
0.0782753 0.118222 0.09187
0.07805 0.118199 0.0920447
0.0778013 0.118188 0.0921988
0.0775258 0.118191 0.0923292
0.0771886 0.118224 0.0924047
0.0769316 0.118218 0.0925511
0.076654 0.118221 0.0926792
0.0764104 0.118208 0.0928372
0.0761202 0.118218 0.0929539
0.075864 0.118211 0.0931006
0.0756007 0.118208 0.0932409
0.075368 0.118189 0.0934084
0.0750837 0.118197 0.0935298
0.0747157 0.118246 0.0935763
0.0744928 0.118223 0.0937522
0.0742126 0.118228 0.0938769
0.0739576 0.118221 0.094024
0.073683 0.118224 0.0941534
0.0734372 0.118212 0.0943085
0.0731034 0.118245 0.0943846
0.0728288 0.118248 0.0945136
0.07249 0.118283 0.0945848
0.0722507 0.118268 0.0947452
0.0719547 0.118282 0.0948547
0.0716507 0.1183 0.0949566
0.0713955 0.118294 0.0951025
0.0711184 0.118298 0.0952285
0.0707865 0.118331 0.0953047
0.0705198 0.11833 0.0954399
0.0702799 0.118316 0.095599
0.0700049 0.118319 0.0957265
0.0697617 0.118307 0.0958825
0.0694023 0.118354 0.095933
0.0692082 0.118316 0.0961336
0.0688211 0.118377 0.0961585
0.0686405 0.118333 0.0963711
0.0684191 0.118309 0.0965467
0.0681186 0.118326 0.0966499
0.0677852 0.11836 0.0967229
0.0675408 0.118349 0.0968772
0.0672723 0.118349 0.0970093
0.0669725 0.118366 0.0971126
0.0666548 0.118392 0.0971993
0.0664436 0.118364 0.0973836
0.066164 0.118371 0.097505
0.0658432 0.118399 0.0975884
0.0655596 0.118408 0.0977058
0.0652692 0.11842 0.0978168
0.0649778 0.118433 0.0979268
0.0648304 0.118372 0.0981695
0.064452 0.11843 0.0981989
0.0642106 0.118417 0.0983546
0.0639851 0.118396 0.0985251
0.0636698 0.118422 0.0986123
0.0633404 0.118455 0.0986861
0.0631074 0.118438 0.0988494
0.0628076 0.118456 0.0989504
0.0625288 0.118463 0.0990708
0.0622572 0.118466 0.0991977
0.0619385 0.118494 0.0992807
0.0616947 0.118483 0.0994334
0.0613717 0.118513 0.099512
0.0611579 0.118487 0.0996924
0.0608178 0.118526 0.0997547
0.0606002 0.118502 0.0999314
0.0602931 0.118524 0.100024
0.0600867 0.118493 0.100211
0.0597593 0.118526 0.100285
0.0594629 0.118543 0.100387
0.0592302 0.118527 0.10055
0.0588716 0.118576 0.100593
0.0586429 0.118558 0.100759
0.0583592 0.118568 0.100872
0.0581121 0.118559 0.101021
0.0578483 0.118559 0.101153
0.0576308 0.118535 0.101329
0.0573298 0.118555 0.101426
0.0569979 0.118591 0.101493
0.0567108 0.118603 0.101603
0.0566357 0.118504 0.101914
0.0562225 0.118583 0.101904
0.0559435 0.118591 0.102021
0.0557132 0.118574 0.102184
0.0554349 0.118582 0.102302
0.0551733 0.118582 0.102435
0.0548885 0.118593 0.102546
0.0546253 0.118594 0.102678
0.0543548 0.118598 0.102802
0.0541149 0.118586 0.102956
0.0538826 0.11857 0.103116
0.0444814 0.123265 0.0948551
0.0452841 0.118563 0.107471
0.0450705 0.118538 0.107648
0.0448423 0.118521 0.10781
0.079009 0.117978 0.0913414
0.0787798 0.117957 0.091513
0.0785234 0.11795 0.0916606
0.0782427 0.117955 0.0917866
0.0779771 0.117952 0.0919259
0.0777162 0.117947 0.0920692
0.0774766 0.117932 0.0922313
0.0771946 0.117938 0.0923558
0.0768588 0.117971 0.0924324
0.0765992 0.117966 0.0925764
0.0762992 0.117981 0.0926845
0.0760731 0.117959 0.0928581
0.0757988 0.117961 0.0929887
0.0755539 0.117948 0.0931454
0.0752763 0.117952 0.0932729
0.0749744 0.117969 0.0933786
0.0747168 0.117963 0.0935237
0.0744299 0.117971 0.0936425
0.0741591 0.117972 0.0937755
0.0738907 0.117972 0.0939107
0.0736084 0.117979 0.0940331
0.0733679 0.117964 0.0941931
0.0730355 0.117996 0.0942704
0.0727599 0.118 0.0943985
0.0724695 0.118011 0.0945132
0.0721361 0.118044 0.0945891
0.0719158 0.118019 0.0947666
0.0716556 0.118015 0.0949081
0.0713324 0.118043 0.0949927
0.0710067 0.118072 0.0950747
0.0707595 0.118062 0.0952276
0.0704557 0.11808 0.0953292
0.0702064 0.11807 0.09548
0.0699273 0.118076 0.0956036
0.0696299 0.118091 0.0957106
0.0694232 0.11806 0.0958997
0.0691388 0.118069 0.0960182
0.0688723 0.118068 0.0961528
0.0685331 0.118105 0.0962212
0.0682192 0.118129 0.0963123
0.0679766 0.118116 0.0964683
0.0677816 0.11808 0.0966678
0.0674911 0.118092 0.0967799
0.0671872 0.118111 0.0968796
0.0668909 0.118126 0.0969861
0.0666164 0.11813 0.0971125
0.0663502 0.11813 0.0972463
0.066094 0.118124 0.0973891
0.0657996 0.118139 0.0974969
0.065447 0.118183 0.0975507
0.0652456 0.11815 0.0977438
0.0649967 0.118141 0.097893
0.0647247 0.118144 0.0980208
0.0644155 0.118166 0.0981141
0.0641139 0.118185 0.0982142
0.0639142 0.118151 0.0984086
0.0635899 0.118181 0.0984874
0.0633467 0.11817 0.0986412
0.0630042 0.11821 0.0987028
0.0627324 0.118213 0.0988298
0.0624825 0.118205 0.0989772
0.0622054 0.118211 0.0990991
0.0619069 0.118229 0.0992008
0.0616089 0.118246 0.099303
0.0613956 0.118219 0.099484
0.0611477 0.11821 0.0996327
0.0607078 0.118301 0.0996016
0.0605377 0.118252 0.0998229
0.0602657 0.118256 0.0999486
0.0599814 0.118266 0.100063
0.059677 0.118287 0.100158
0.059359 0.118316 0.10024
0.0591356 0.118294 0.100411
0.0588064 0.118328 0.100482
0.0585404 0.11833 0.100613
0.0583059 0.118314 0.100773
0.058044 0.118313 0.100907
0.0578009 0.118302 0.101059
0.0575 0.118322 0.101156
0.0572355 0.118323 0.101288
0.0568973 0.118362 0.101349
0.0566786 0.118339 0.101524
0.0563824 0.118356 0.101625
0.0561674 0.118331 0.101803
0.055882 0.118342 0.101914
0.0555841 0.118361 0.102013
0.0553496 0.118346 0.102172
0.0550826 0.118348 0.1023
0.0548062 0.118355 0.102419
0.0545531 0.11835 0.10256
0.0542473 0.118373 0.102651
0.054018 0.118356 0.102815
0.0538013 0.118332 0.10299
0.0438072 0.123347 0.0941605
0.0789774 0.11771 0.0912588
0.0787357 0.117695 0.0914195
0.0784523 0.117702 0.0915434
0.0781987 0.117693 0.0916933
0.0779311 0.117692 0.0918308
0.0776136 0.117716 0.0919242
0.0773868 0.117694 0.0920975
0.077195 0.117654 0.0923018
0.0769307 0.117651 0.0924419
0.0765445 0.11771 0.0924738
0.076364 0.117665 0.0926879
0.0760642 0.11768 0.0927961
0.0757856 0.117684 0.092923
0.0754993 0.117693 0.0930429
0.0752545 0.11768 0.0931996
0.0749973 0.117674 0.0933452
0.0746948 0.11769 0.0934504
0.0744072 0.1177 0.0935686
0.0740886 0.117725 0.0936589
0.0738152 0.117727 0.0937896
0.0734861 0.117757 0.0938702
0.0732473 0.117742 0.0940315
0.0730751 0.117693 0.0942526
0.0726465 0.117774 0.0942434
0.07241 0.117758 0.0944066
0.0720437 0.117808 0.0944529
0.0717802 0.117805 0.0945914
0.0716409 0.11774 0.0948419
0.0712918 0.117781 0.0949032
0.0710162 0.117785 0.0950306
0.0707073 0.117805 0.0951278
0.0704248 0.117813 0.0952486
0.0701745 0.117804 0.0953985
0.0698437 0.117836 0.0954753
0.0696089 0.117819 0.095639
0.0693066 0.117837 0.0957414
0.0689858 0.117864 0.0958268
0.0687923 0.117827 0.0960278
0.0684879 0.117846 0.0961278
0.068176 0.117869 0.0962208
0.067986 0.117829 0.0964249
0.067726 0.117825 0.096565
0.0673994 0.117856 0.0966441
0.0671079 0.117869 0.0967552
0.0668434 0.117868 0.0968908
0.0666011 0.117855 0.0970467
0.0663241 0.117861 0.0971707
0.0660318 0.117874 0.0972806
0.0657397 0.117887 0.0973904
0.0654551 0.117897 0.0975069
0.0651949 0.117894 0.0976458
0.064899 0.117909 0.0977517
0.0646295 0.117911 0.0978818
0.0643859 0.1179 0.0980356
0.0640771 0.117922 0.0981292
0.0637657 0.117945 0.0982201
0.0635336 0.117928 0.0983843
0.0632762 0.117924 0.098525
0.0629716 0.117944 0.0986218
0.062707 0.117944 0.0987557
0.0624191 0.117956 0.0988676
0.0621388 0.117964 0.0989865
0.0618307 0.117986 0.0990795
0.0615173 0.118011 0.0991672
0.0613292 0.117971 0.0993717
0.0609894 0.118011 0.0994345
0.0607152 0.118016 0.0995584
0.0604596 0.118011 0.0996997
0.0601557 0.118032 0.0997955
0.059901 0.118027 0.0999374
0.0596228 0.118034 0.100057
0.0593471 0.11804 0.100179
0.0590588 0.118053 0.100289
0.0587152 0.118094 0.100346
0.0585147 0.118061 0.100539
0.0581897 0.118093 0.100614
0.0579653 0.118073 0.100783
0.0577078 0.11807 0.100922
0.0574499 0.118067 0.101059
0.0572468 0.118035 0.101249
0.0568597 0.1181 0.101264
0.0565763 0.118111 0.101378
0.056346 0.118094 0.101541
0.0560468 0.118113 0.101639
0.0558034 0.118102 0.10179
0.0555446 0.1181 0.101926
0.0552325 0.118126 0.102011
0.0550179 0.118101 0.102189
0.0547318 0.118113 0.102299
0.0544758 0.11811 0.102438
0.0542081 0.118113 0.102565
0.0539647 0.118103 0.102715
0.0537721 0.118066 0.102914
0.0790864 0.117372 0.0912998
0.078696 0.117432 0.0913298
0.078539 0.117375 0.091565
0.0781942 0.117412 0.0916347
0.0779979 0.117375 0.0918352
0.0776484 0.117414 0.0919004
0.0774002 0.117403 0.0920549
0.0771198 0.117408 0.0921809
0.0768147 0.117426 0.0922849
0.0766774 0.117359 0.0925374
0.0764259 0.11735 0.0926887
0.0759877 0.117435 0.0926741
0.075749 0.117419 0.0928365
0.0754773 0.11742 0.0929694
0.0752562 0.117396 0.0931473
0.0749674 0.117405 0.0932648
0.074669 0.11742 0.0933736
0.0743903 0.117425 0.0934999
0.074108 0.117432 0.0936227
0.0737926 0.117455 0.0937159
0.073501 0.117467 0.0938301
0.073229 0.117468 0.0939618
0.072987 0.117455 0.0941203
0.0725971 0.117516 0.0941458
0.0724036 0.117478 0.0943477
0.0720874 0.117502 0.0944391
0.0717966 0.117514 0.0945532
0.0715629 0.117496 0.0947187
0.0712533 0.117517 0.0948155
0.0710117 0.117504 0.0949738
0.0707109 0.117521 0.0950782
0.0704322 0.117526 0.0952026
0.0701357 0.117541 0.0953107
0.0697946 0.117578 0.0953783
0.0695145 0.117585 0.095501
0.0692457 0.117586 0.0956337
0.0690096 0.117569 0.0957962
0.0687106 0.117586 0.0959012
0.0684287 0.117593 0.0960217
0.0680959 0.117627 0.0960957
0.0679259 0.117577 0.096318
0.0675958 0.11761 0.0963941
0.0673352 0.117607 0.0965336
0.0671007 0.11759 0.0966968
0.0667456 0.117636 0.0967496
0.0665261 0.117611 0.0969263
0.0663349 0.117573 0.0971291
0.0659479 0.117635 0.097152
0.0657154 0.117617 0.0973165
0.0653993 0.117643 0.0974041
0.0652106 0.117603 0.0976089
0.0647929 0.117682 0.0976026
0.0646015 0.117643 0.0978047
0.0643895 0.117615 0.0979878
0.0640638 0.117646 0.0980659
0.063756 0.117668 0.0981602
0.063505 0.117661 0.0983069
0.0632265 0.117668 0.0984282
0.0629789 0.117658 0.0985779
0.0626342 0.1177 0.0986373
0.0624025 0.117682 0.0988016
0.0620802 0.117712 0.0988814
0.0618565 0.117691 0.099053
0.0615146 0.117731 0.0991143
0.0612172 0.117748 0.0992169
0.0609913 0.117728 0.0993861
0.0608904 0.117642 0.0996721
0.0604008 0.11776 0.0995945
0.0600803 0.117789 0.0996749
0.0598421 0.117776 0.0998321
0.0595362 0.117797 0.0999259
0.0593041 0.117781 0.100089
0.059061 0.11777 0.100241
0.0587164 0.117812 0.100298
0.0584356 0.117821 0.100415
0.0581895 0.117812 0.100564
0.0579099 0.11782 0.100681
0.0576527 0.117817 0.10082
0.0574303 0.117795 0.100992
0.0571268 0.117816 0.101086
0.0568163 0.117841 0.101174
0.056583 0.117826 0.101335
0.0562175 0.11788 0.10137
0.0559581 0.117878 0.101506
0.0557407 0.117854 0.101681
0.0554426 0.117872 0.10178
0.0551842 0.11787 0.101917
0.054938 0.117862 0.102065
0.0546725 0.117863 0.102194
0.0543961 0.117871 0.102313
0.0541668 0.117853 0.102477
0.0538947 0.117858 0.1026
0.053672 0.117837 0.10277
0.0786875 0.117152 0.0912676
0.0785197 0.117101 0.0914933
0.0782822 0.117084 0.0916576
0.0779514 0.117114 0.0917396
0.0776903 0.11711 0.0918829
0.077431 0.117104 0.0920278
0.0772257 0.117072 0.0922202
0.0768679 0.117116 0.0922777
0.076664 0.117082 0.0924713
0.0763662 0.117096 0.0925816
0.0760307 0.11713 0.0926582
0.0757446 0.117138 0.0927786
0.0755424 0.117104 0.0929734
0.075233 0.117124 0.0930728
0.0749992 0.117106 0.0932393
0.0747238 0.117109 0.0933688
0.0743825 0.117146 0.0934392
0.0741537 0.117125 0.09361
0.0738052 0.117165 0.0936736
0.0735877 0.117139 0.0938543
0.0732055 0.117197 0.0938873
0.0729598 0.117185 0.0940426
0.0725912 0.117236 0.0940874
0.0723593 0.117218 0.0942547
0.0721096 0.117208 0.094406
0.071772 0.117243 0.094478
0.0715602 0.117215 0.0946633
0.0712335 0.117244 0.0947449
0.0709441 0.117255 0.0948599
0.0706428 0.117272 0.094964
0.0703793 0.11727 0.0951021
0.0700988 0.117277 0.0952248
0.0697916 0.117297 0.0953231
0.0695757 0.117271 0.0955041
0.0692332 0.117309 0.09557
0.0689303 0.117327 0.0956718
0.0685878 0.117366 0.0957373
0.0683725 0.117339 0.0959184
0.0681227 0.117331 0.0960681
0.0678629 0.117327 0.0962085
0.0675958 0.117327 0.0963422
0.0673143 0.117335 0.0964626
0.0670585 0.117329 0.0966065
0.066749 0.117351 0.0967009
0.066564 0.117309 0.0969094
0.066198 0.117361 0.0969518
0.0659371 0.117358 0.0970905
0.0656513 0.117368 0.0972062
0.0653772 0.117372 0.0973325
0.0651151 0.11737 0.0974697
0.0647933 0.117399 0.0975517
0.0645845 0.117369 0.0977379
0.0642911 0.117384 0.0978459
0.0640798 0.117356 0.0980296
0.0637872 0.11737 0.0981381
0.0635141 0.117374 0.0982645
0.0632229 0.117387 0.098374
0.0629367 0.117398 0.098488
0.0626756 0.117396 0.0986251
0.0623934 0.117405 0.0987425
0.062111 0.117414 0.0988596
0.0618415 0.117416 0.0989886
0.0616102 0.117399 0.0991531
0.0612455 0.117451 0.0991929
0.0609473 0.117469 0.0992947
0.060752 0.117432 0.0994926
0.0603594 0.117499 0.0995056
0.0601282 0.117482 0.0996697
0.0598169 0.117507 0.0997586
0.0595134 0.117527 0.0998546
0.0592776 0.117513 0.100014
0.0589229 0.11756 0.100061
0.0587116 0.117533 0.100244
0.0584162 0.117549 0.100347
0.0581901 0.11753 0.100515
0.0578748 0.117557 0.100599
0.0576378 0.117543 0.100757
0.0573209 0.117571 0.100839
0.0571492 0.117523 0.101058
0.0569188 0.117506 0.101222
0.0564377 0.117621 0.101148
0.0562673 0.117572 0.101368
0.0559266 0.117613 0.101427
0.0556647 0.117612 0.10156
0.0554208 0.117602 0.101711
0.0551772 0.117592 0.101861
0.0548795 0.117611 0.10196
0.0546842 0.117575 0.102157
0.0543245 0.117627 0.102196
0.0541274 0.117592 0.102391
0.0538425 0.117605 0.102501
0.0788338 0.116795 0.0913415
0.0786357 0.116759 0.0915407
0.0783216 0.11678 0.0916378
0.0780525 0.11678 0.0917742
0.0778143 0.116764 0.0919379
0.0773798 0.116846 0.0919281
0.0771883 0.116807 0.0921328
0.076946 0.116793 0.0922926
0.0767005 0.11678 0.0924494
0.0764347 0.116778 0.0925882
0.0761826 0.116769 0.092739
0.0758219 0.116815 0.0927932
0.0755555 0.116814 0.0929311
0.0752967 0.116808 0.0930757
0.0749972 0.116823 0.0931837
0.0748157 0.116779 0.093397
0.0744242 0.116841 0.0934228
0.074165 0.116836 0.0935665
0.0739151 0.116826 0.0937184
0.0736426 0.116828 0.09385
0.0732223 0.116905 0.093849
0.0728706 0.116947 0.0939092
0.0725594 0.116969 0.0940056
0.0722943 0.116967 0.0941432
0.0720458 0.116957 0.0942955
0.0718122 0.11694 0.0944613
0.0715986 0.116912 0.094645
0.0712358 0.11696 0.094694
0.0708525 0.117019 0.0947243
0.0706893 0.116966 0.0949533
0.0704716 0.11694 0.095133
0.070112 0.116987 0.0951841
0.0698416 0.116988 0.0953159
0.0695542 0.116999 0.0954321
0.0693295 0.116977 0.0956051
0.0689692 0.117024 0.0956548
0.0685414 0.117107 0.0956428
0.0684546 0.117014 0.095941
0.0680247 0.117098 0.0959266
0.0678287 0.117062 0.0961253
0.067583 0.117051 0.0962785
0.0672999 0.117059 0.0963976
0.0670261 0.117063 0.0965249
0.066762 0.117062 0.096661
0.0664859 0.117067 0.0967861
0.0662313 0.117061 0.0969308
0.0659355 0.117076 0.0970375
0.0656613 0.11708 0.0971638
0.0654205 0.117067 0.0973209
0.0651156 0.117087 0.0974188
0.0648548 0.117085 0.0975572
0.0645576 0.117101 0.0976619
0.0642798 0.117107 0.0977843
0.0641112 0.117057 0.0980076
0.0638129 0.117074 0.0981109
0.0635387 0.117078 0.0982364
0.063257 0.117087 0.0983547
0.0629618 0.117103 0.0984605
0.0627681 0.117065 0.0986603
0.0623606 0.11714 0.0986614
0.0621117 0.117131 0.0988097
0.0618545 0.117127 0.0989502
0.0616025 0.11712 0.0990955
0.0612882 0.117146 0.0991825
0.0609669 0.117176 0.0992628
0.0606851 0.117185 0.0993798
0.0603662 0.117214 0.099462
0.0601282 0.1172 0.0996196
0.0599296 0.117166 0.0998143
0.0595123 0.117246 0.0998036
0.059272 0.117234 0.0999589
0.0589739 0.117251 0.10006
0.0588071 0.117201 0.100284
0.0584288 0.117261 0.100309
0.0581843 0.117251 0.10046
0.0578831 0.117271 0.100557
0.0575907 0.117286 0.100663
0.0573662 0.117265 0.100832
0.0571174 0.117258 0.100979
0.0568082 0.117282 0.101068
0.0565483 0.11728 0.101204
0.0563214 0.117261 0.101371
0.0558688 0.117362 0.101323
0.0557924 0.117263 0.101633
0.0554086 0.117327 0.10165
0.0551936 0.117302 0.101828
0.0548778 0.11733 0.10191
0.0545695 0.117355 0.101999
0.0543054 0.117356 0.102129
0.0541063 0.117322 0.102322
0.0790027 0.116426 0.0914352
0.0785897 0.116498 0.0914455
0.0784753 0.116419 0.0917185
0.0780562 0.116494 0.0917229
0.0777967 0.116488 0.0918679
0.0776013 0.116451 0.0920693
0.0772854 0.116474 0.0921643
0.0769979 0.116483 0.0922842
0.076675 0.116509 0.0923726
0.0764525 0.116485 0.0925498
0.076207 0.116473 0.0927066
0.0758775 0.116503 0.0927887
0.0756923 0.116461 0.0929988
0.0752545 0.116546 0.0929841
0.0750625 0.116507 0.0931882
0.0747577 0.116525 0.0932915
0.0744152 0.116562 0.093361
0.0741972 0.116536 0.0935417
0.0738884 0.116556 0.093641
0.0735645 0.116584 0.0937266
0.0732479 0.116609 0.0938186
0.072938 0.11663 0.0939164
0.0725204 0.116706 0.0939173
0.0725539 0.116552 0.0943233
0.0720104 0.116692 0.0942105
0.0717305 0.116698 0.0943347
0.0714762 0.116691 0.0944817
0.0712272 0.116681 0.0946333
0.0709496 0.116686 0.0947591
0.0706149 0.116721 0.0948333
0.0704783 0.116653 0.0950863
0.0701514 0.116684 0.0951672
0.0699264 0.116662 0.0953402
0.0696059 0.116689 0.0954265
0.0693321 0.116692 0.0955551
0.0690044 0.116723 0.0956344
0.0687242 0.11673 0.0957569
0.0682959 0.116813 0.0957443
0.0680552 0.1168 0.0959024
0.0677477 0.116821 0.0959993
0.0677022 0.116707 0.0963354
0.067448 0.1167 0.096481
0.0671378 0.116723 0.0965753
0.0668744 0.116721 0.0967123
0.0665443 0.116754 0.0967879
0.0662146 0.116787 0.0968638
0.0660077 0.116756 0.0970522
0.0656857 0.116785 0.0971348
0.0655234 0.116731 0.0973641
0.0652548 0.116732 0.0974956
0.0649673 0.116744 0.0976096
0.0645867 0.116803 0.0976375
0.0643326 0.116797 0.097782
0.0640644 0.116799 0.0979132
0.0638729 0.11676 0.0981154
0.0636001 0.116764 0.0982423
0.0633278 0.116768 0.0983695
0.0630404 0.116779 0.0984826
0.062747 0.116794 0.09859
0.0624446 0.116813 0.0986889
0.0620867 0.116862 0.0987359
0.0620002 0.116769 0.0990354
0.0615975 0.116841 0.0990404
0.061301 0.116857 0.0991441
0.0610621 0.116844 0.0993014
0.0607776 0.116855 0.099416
0.060508 0.116857 0.0995446
0.0601322 0.116916 0.0995734
0.0599314 0.116882 0.0997659
0.0595078 0.116966 0.0997495
0.0592746 0.11695 0.0999115
0.0590533 0.116928 0.100085
0.058768 0.116939 0.100197
0.0584857 0.116949 0.100313
0.0580998 0.117013 0.100331
0.0579337 0.116962 0.100556
0.057658 0.116968 0.100677
0.0573455 0.116994 0.100763
0.057103 0.116984 0.100916
0.0568939 0.116955 0.1011
0.0566503 0.116945 0.101251
0.0563076 0.116987 0.101308
0.0560414 0.116989 0.101438
0.0557118 0.117024 0.101507
0.0554172 0.117041 0.10161
0.0552516 0.11699 0.101835
0.0549572 0.117006 0.101937
0.0546401 0.117036 0.102017
0.0543605 0.117045 0.102133
0.0791162 0.116085 0.0914802
0.078696 0.11616 0.0914843
0.0785914 0.116076 0.0917661
0.0781043 0.116186 0.0917108
0.0778611 0.116172 0.0918702
0.0776364 0.116149 0.0920459
0.0772713 0.116197 0.0920974
0.0770475 0.116174 0.0922737
0.0768945 0.116114 0.0925128
0.076415 0.116221 0.0924623
0.0762599 0.116162 0.0926994
0.0759036 0.116206 0.0927578
0.0757529 0.116146 0.0929987
0.0754442 0.116166 0.0930991
0.0751241 0.116192 0.0931891
0.0747544 0.116243 0.0932348
0.0745764 0.116196 0.0934512
0.074253 0.116224 0.0935379
0.0739295 0.116252 0.0936242
0.0736131 0.116276 0.0937166
0.0733814 0.116257 0.0938848
0.0730023 0.116313 0.0939207
0.0728524 0.116253 0.0941621
0.0722626 0.116417 0.0940083
0.0713187 0.116351 0.094663
0.0709801 0.116387 0.0947339
0.0707861 0.11635 0.0949352
0.0704082 0.116406 0.0949702
0.0703777 0.116284 0.0953194
0.0699378 0.116373 0.0952979
0.0697197 0.116347 0.0954772
0.0694839 0.116331 0.0956404
0.0691345 0.116373 0.0957003
0.0687657 0.116426 0.0957423
0.0685367 0.116406 0.0959114
0.068285 0.116398 0.0960596
0.0679974 0.116409 0.0961751
0.0677697 0.116389 0.0963451
0.067441 0.116421 0.0964227
0.0672249 0.116395 0.0966031
0.066901 0.116424 0.0966848
0.0667101 0.116385 0.0968882
0.0663433 0.116437 0.0969302
0.0660792 0.116436 0.0970663
0.0657754 0.116456 0.0971657
0.0655596 0.116429 0.0973459
0.0652148 0.11647 0.0974074
0.0650105 0.116438 0.0975982
0.064725 0.116449 0.0977139
0.0644002 0.116479 0.0977933
0.0641412 0.116476 0.0979331
0.0638849 0.116471 0.0980755
0.0635929 0.116485 0.0981847
0.0633161 0.116491 0.0983078
0.0630796 0.116476 0.0984682
0.0627457 0.116512 0.0985381
0.0625485 0.116476 0.0987348
0.0622325 0.116503 0.098821
0.0619292 0.116523 0.0989187
0.0616529 0.116529 0.0990415
0.0614496 0.116497 0.0992323
0.0610579 0.116564 0.0992472
0.0608316 0.116544 0.0994163
0.0604696 0.116595 0.0994584
0.0600653 0.116669 0.0994606
0.0600022 0.116563 0.0997823
0.0597133 0.116576 0.0998924
0.0593596 0.116623 0.0999414
0.059009 0.116669 0.0999932
0.0587863 0.116647 0.100165
0.058518 0.11665 0.100294
0.0582579 0.116648 0.10043
0.0580208 0.116634 0.100588
0.0576328 0.1167 0.100604
0.0573324 0.116719 0.100702
0.0571319 0.116686 0.100894
0.0568735 0.116684 0.101031
0.0565925 0.116693 0.101147
0.0563645 0.116675 0.101313
0.0560791 0.116687 0.101425
0.0557248 0.116735 0.101471
0.0555225 0.116703 0.101661
0.0552475 0.11671 0.101782
0.0549332 0.116737 0.101865
0.054705 0.116719 0.102031
0.0791538 0.115781 0.0914584
0.0788582 0.115794 0.0915723
0.0785593 0.115808 0.0916831
0.0783627 0.115771 0.0918839
0.0778747 0.115881 0.0918275
0.0776934 0.115836 0.0920417
0.0772783 0.115909 0.0920492
0.0770296 0.115899 0.0922036
0.0769614 0.115796 0.0925177
0.0764648 0.115911 0.0924523
0.0763497 0.115833 0.0927249
0.0760333 0.115856 0.0928189
0.0757053 0.115886 0.0929023
0.0754986 0.115854 0.0930936
0.0752227 0.115857 0.0932231
0.0749718 0.115848 0.0933749
0.0744962 0.115953 0.0933259
0.0744317 0.115849 0.0936438
0.0741786 0.115841 0.0937933
0.0737431 0.115926 0.0937795
0.0734777 0.115924 0.0939176
0.068433 0.116039 0.0961423
0.0682234 0.116009 0.0963291
0.0679262 0.116025 0.0964359
0.0674518 0.116132 0.0963806
0.0673635 0.11604 0.0966779
0.0670724 0.116052 0.0967899
0.0666867 0.116114 0.096815
0.0665088 0.116068 0.0970304
0.066144 0.116119 0.0970742
0.0658386 0.11614 0.0971723
0.0656003 0.116125 0.097332
0.065277 0.116155 0.0974133
0.0650411 0.11614 0.097575
0.0647793 0.116137 0.0977127
0.0644461 0.116173 0.0977844
0.0642655 0.116128 0.0979969
0.0638744 0.116194 0.0980147
0.0636352 0.11618 0.0981729
0.0633834 0.116173 0.0983193
0.0631005 0.116182 0.0984368
0.0628494 0.116175 0.0985836
0.062533 0.116202 0.0986696
0.0621763 0.11625 0.0987181
0.0621382 0.116131 0.0990628
0.061666 0.11624 0.0990033
0.0615265 0.116174 0.0992537
0.0612494 0.116181 0.0993757
0.0607496 0.116304 0.0992894
0.060571 0.116259 0.0995031
0.06012 0.116357 0.0994618
0.0598848 0.116342 0.0996222
0.0597394 0.11628 0.0998669
0.0592965 0.116374 0.0998324
0.0590114 0.116385 0.0999456
0.0587646 0.116376 0.100095
0.0585392 0.116356 0.100264
0.0583025 0.116342 0.100423
0.0580471 0.116338 0.100564
0.0577641 0.116348 0.100678
0.0574322 0.116384 0.100747
0.057198 0.116369 0.100907
0.0567302 0.116478 0.100846
0.0565579 0.11643 0.101065
0.0563242 0.116414 0.101226
0.0560243 0.116434 0.101324
0.0557679 0.11643 0.101463
0.0554888 0.116439 0.10158
0.0552636 0.116419 0.101748
0.0550503 0.116393 0.101928
0.0789329 0.115472 0.0915832
0.0786318 0.115487 0.0916921
0.0783795 0.115478 0.091844
0.0779382 0.115565 0.0918291
0.0777057 0.115545 0.0919981
0.0774863 0.11552 0.0921786
0.0772435 0.115506 0.0923384
0.0769673 0.115509 0.0924686
0.0765258 0.115596 0.0924521
0.0763269 0.11556 0.0926505
0.0760918 0.115543 0.0928168
0.0758837 0.115511 0.0930069
0.0755376 0.11555 0.0930742
0.0752291 0.11557 0.0931749
0.0749902 0.115555 0.0933374
0.074579 0.115627 0.0933461
0.0743678 0.115598 0.093533
0.0742877 0.115501 0.0938372
0.0740108 0.115505 0.0939655
0.0677061 0.115855 0.0961829
0.0675526 0.115797 0.0964207
0.0672913 0.115794 0.0965601
0.067073 0.115769 0.0967386
0.0668173 0.115763 0.0968829
0.0665487 0.115764 0.0970152
0.0661582 0.115829 0.0970356
0.065954 0.115797 0.0972267
0.0656959 0.115793 0.0973684
0.0653429 0.115838 0.0974225
0.0651389 0.115806 0.0976138
0.0649234 0.115779 0.0977943
0.0645268 0.115848 0.0978077
0.0641756 0.115892 0.0978627
0.0639909 0.11585 0.0980715
0.0637699 0.115827 0.0982466
0.063365 0.1159 0.0982513
0.0631017 0.115899 0.098387
0.0628447 0.115895 0.0985285
0.0626055 0.115881 0.0986863
0.0623801 0.11586 0.098857
0.0620331 0.115903 0.0989144
0.0617866 0.115894 0.0990652
0.061555 0.115877 0.0992298
0.0611913 0.115929 0.0992711
0.0609854 0.115898 0.0994595
0.060831 0.11584 0.0996961
0.0604195 0.115917 0.0996921
0.0552723 0.116133 0.101708
0.0549909 0.116143 0.101823
0.0789587 0.115174 0.0915511
0.0786059 0.115216 0.0916146
0.0784694 0.115148 0.0918686
0.0781886 0.115153 0.0919953
0.0778654 0.11518 0.0920845
0.0775816 0.115187 0.0922083
0.0774061 0.115139 0.0924278
0.0770623 0.115176 0.0924983
0.0765139 0.115318 0.0923872
0.0764696 0.115203 0.0927229
0.0762112 0.115198 0.0928686
0.0758335 0.115253 0.0929082
0.0757371 0.115164 0.0931978
0.0753348 0.115232 0.0932151
0.0750797 0.115225 0.0933633
0.0748683 0.115195 0.0935505
0.0745911 0.115199 0.0936788
0.0741805 0.115272 0.0936877
0.0741067 0.115172 0.0939977
0.0679239 0.115459 0.0963297
0.067728 0.115422 0.0965289
0.0674275 0.11544 0.0966326
0.0670836 0.11548 0.0966964
0.0669051 0.115434 0.0969115
0.0665447 0.115483 0.0969598
0.0662737 0.115486 0.0970899
0.0658622 0.115561 0.0970908
0.0657145 0.1155 0.0973339
0.0654662 0.11549 0.0974846
0.0651568 0.115513 0.0975789
0.064968 0.115473 0.0977841
0.0644573 0.115601 0.0976923
0.0642445 0.115573 0.0978752
0.0640331 0.115545 0.0980594
0.0637191 0.11557 0.0981486
0.0634773 0.115558 0.0983044
0.0631979 0.115566 0.0984254
0.0630137 0.115523 0.0986345
0.0625796 0.115612 0.0986115
0.0623738 0.115581 0.0988005
0.0620869 0.115592 0.0989139
0.0619597 0.11552 0.099176
0.061652 0.115543 0.0992699
0.0613671 0.115553 0.0993848
0.0610021 0.115606 0.0994248
0.0609479 0.115496 0.0997552
0.0790872 0.114824 0.0916092
0.0787454 0.114861 0.0916826
0.0784397 0.114878 0.0917877
0.0782457 0.11484 0.091991
0.0780177 0.114818 0.0921644
0.0776548 0.114865 0.0922185
0.0774454 0.114834 0.0924081
0.0770016 0.114923 0.0923902
0.0769482 0.114813 0.0927179
0.076695 0.114804 0.0928685
0.0762728 0.114882 0.0928691
0.0761386 0.114813 0.0931253
0.0757404 0.114878 0.0931467
0.0754179 0.114905 0.0932351
0.0751093 0.114925 0.0933358
0.0749452 0.114872 0.0935652
0.07465 0.114885 0.0936776
0.0743387 0.114907 0.0937755
0.0740762 0.114903 0.0939168
0.0676515 0.115178 0.0964071
0.0674963 0.115121 0.0966436
0.0672778 0.115096 0.0968223
0.0669308 0.115137 0.0968832
0.0665978 0.115172 0.0969568
0.0663072 0.115185 0.097069
0.0660121 0.1152 0.0971769
0.0657223 0.115212 0.0972896
0.0655123 0.115183 0.0974756
0.0650741 0.115273 0.0974512
0.0650124 0.115166 0.0977737
0.0646759 0.115203 0.0978428
0.0642807 0.115271 0.0978575
0.0641957 0.115177 0.0981586
0.063808 0.115241 0.0981797
0.0636314 0.115194 0.0983962
0.0632802 0.115239 0.0984508
0.0630116 0.115241 0.0985817
0.0627717 0.115228 0.0987392
0.0624715 0.115246 0.0988406
0.0621959 0.115252 0.0989647
0.0619279 0.115254 0.0990958
0.061647 0.115262 0.0992147
0.0614141 0.115246 0.0993783
0.0610832 0.115281 0.0994503
0.0608052 0.115288 0.0995715
0.0788127 0.114542 0.091687
0.0785455 0.11454 0.0918261
0.078263 0.114546 0.0919516
0.0779844 0.11455 0.0920804
0.077772 0.114521 0.0922675
0.0774961 0.114524 0.0923986
0.0772405 0.114516 0.0925474
0.0768808 0.114562 0.0926038
0.076772 0.11448 0.0928827
0.0763395 0.114563 0.0928741
0.0760019 0.114598 0.0929496
0.0758688 0.114528 0.0932068
0.0754864 0.114586 0.0932421
0.0752789 0.114554 0.093433
0.0750188 0.114549 0.093577
0.0747437 0.114553 0.0937075
0.074376 0.114603 0.0937551
0.07439 0.114458 0.0941439
0.0673323 0.114922 0.0964416
0.0672734 0.114814 0.0967663
0.067039 0.114797 0.0969305
0.0666596 0.114856 0.0969616
0.0664844 0.114809 0.0971799
0.066193 0.114822 0.0972914
0.0658571 0.114858 0.097362
0.0656741 0.114815 0.0975729
0.0652944 0.114875 0.0976028
0.065083 0.114846 0.0977875
0.0648328 0.114838 0.0979364
0.0645304 0.114857 0.0980369
0.0642224 0.114879 0.0981322
0.0637678 0.114979 0.0980916
0.0636407 0.114906 0.0983538
0.0633267 0.114932 0.098443
0.0631032 0.11491 0.0986158
0.0627187 0.114973 0.0986392
0.0624715 0.114963 0.09879
0.062358 0.114884 0.0990649
0.0619282 0.114971 0.0990455
0.0617255 0.114938 0.0992374
0.0614668 0.114935 0.099377
0.0612279 0.114921 0.0995351
0.0609221 0.114943 0.0996305
0.0788579 0.114234 0.0916719
0.0787365 0.114158 0.0919396
0.0782895 0.114248 0.0919202
0.0780389 0.114238 0.0920739
0.0777508 0.114247 0.0921942
0.0775 0.114237 0.0923474
0.0772933 0.114205 0.0925396
0.0769061 0.114265 0.0925718
0.0767129 0.114225 0.0927759
0.0764235 0.114236 0.0928945
0.0762273 0.114198 0.0930958
0.0756817 0.114339 0.0929863
0.0755824 0.114252 0.0932736
0.0752411 0.114289 0.0933454
0.0750703 0.114239 0.0935691
0.0747615 0.114259 0.0936696
0.0745318 0.114239 0.0938406
0.0743168 0.114211 0.0940246
0.0675981 0.1145 0.0966325
0.06726 0.114537 0.0967021
0.0671055 0.114479 0.0969395
0.0667574 0.114522 0.0969995
0.0664783 0.114528 0.0971225
0.0662258 0.114521 0.0972699
0.0658081 0.1146 0.0972653
0.065633 0.114553 0.0974836
0.0654354 0.114517 0.0976812
0.0650973 0.114555 0.0977493
0.0648764 0.114532 0.0979253
0.0646171 0.114528 0.0980658
0.0641348 0.114642 0.098
0.0638958 0.114628 0.0981589
0.0637192 0.114582 0.0983755
0.0634474 0.114585 0.0985039
0.0631747 0.114589 0.0986314
0.0628919 0.114598 0.0987493
0.062565 0.114631 0.0988261
0.0622823 0.11464 0.0989438
0.0620766 0.114609 0.0991331
0.0617572 0.114638 0.0992164
0.0616029 0.11458 0.0994537
0.0612522 0.114625 0.0995074
0.061072 0.114581 0.0997203
0.0790955 0.113828 0.0918262
0.0786334 0.113925 0.091794
0.0783801 0.113917 0.0919454
0.0780099 0.113968 0.0919936
0.0779751 0.113848 0.0923377
0.0775615 0.113921 0.0923473
0.0773002 0.113916 0.0924913
0.0770856 0.113888 0.0926766
0.0767038 0.113945 0.0927135
0.0763556 0.113986 0.09278
0.0760535 0.114002 0.0928871
0.0759413 0.113922 0.0931631
0.075638 0.113939 0.0932691
0.0753476 0.11395 0.0933863
0.0751516 0.113912 0.0935876
0.0749126 0.113897 0.0937506
0.0745611 0.113939 0.093813
0.0743829 0.113892 0.0940301
0.0740467 0.113927 0.0941058
0.067652 0.114188 0.0966298
0.0673154 0.114225 0.0967008
0.0671691 0.114162 0.0969458
0.0668307 0.1142 0.0970148
0.0665374 0.114214 0.097125
0.0662469 0.114226 0.0972376
0.0660079 0.114212 0.0973973
0.0656023 0.114285 0.0974038
0.06541 0.114247 0.0976063
0.065177 0.11423 0.0977713
0.0648781 0.114247 0.0978755
0.0645248 0.114293 0.0979293
0.0644233 0.114207 0.0982155
0.064062 0.114257 0.0982616
0.0637601 0.114276 0.0983624
0.0635204 0.114263 0.0985206
0.0631838 0.114301 0.0985889
0.0629189 0.114301 0.0987235
0.0626171 0.11432 0.0988238
0.0624259 0.114281 0.0990268
0.062053 0.114338 0.0990606
0.0619226 0.114267 0.09932
0.0615583 0.11432 0.0993615
0.0613031 0.114315 0.0995045
0.0611238 0.11427 0.0997184
0.0792255 0.113476 0.0918857
0.0788136 0.113548 0.0918979
0.0784347 0.113604 0.0919387
0.0781859 0.113593 0.0920942
0.0779028 0.113599 0.0922193
0.0775622 0.113636 0.0922934
0.0773743 0.113594 0.0925024
0.0771453 0.113573 0.0926749
0.0767599 0.113632 0.0927088
0.0766605 0.113544 0.0929963
0.0761521 0.113667 0.0929205
0.0760074 0.113603 0.0931677
0.0756828 0.113631 0.0932548
0.075444 0.113615 0.0934182
0.0751904 0.113607 0.0935683
0.0748878 0.113625 0.0936746
0.0745789 0.113645 0.093775
0.0744548 0.11357 0.0940406
0.0741559 0.113586 0.0941498
0.0678183 0.113817 0.0967297
0.0673954 0.113899 0.0967219
0.0671497 0.113888 0.0968761
0.0668773 0.113891 0.0970057
0.0666727 0.113859 0.0971974
0.0662801 0.113925 0.0972164
0.0660104 0.113927 0.0973481
0.0656985 0.113951 0.0974407
0.0654361 0.113949 0.0975788
0.0652441 0.113911 0.0977818
0.0649481 0.113926 0.0978887
0.0645858 0.113977 0.0979343
0.0644307 0.113919 0.0981711
0.0641036 0.113952 0.0982489
0.0636848 0.114032 0.0982416
0.0635549 0.113961 0.0985016
0.0632622 0.113976 0.0986107
0.0629394 0.114006 0.0986917
0.0627605 0.113961 0.0989063
0.0624134 0.114004 0.0989645
0.0621494 0.114004 0.0990997
0.0617907 0.114053 0.0991466
0.0615951 0.114017 0.0993453
0.0614074 0.113976 0.0995515
0.0611499 0.113973 0.0996924
0.0791811 0.113214 0.0917917
0.0788041 0.113268 0.0918346
0.0785953 0.113237 0.0920256
0.0783182 0.11324 0.0921562
0.0780304 0.113249 0.0922773
0.0778198 0.113219 0.0924665
0.0775116 0.113238 0.0925693
0.0772117 0.113253 0.0926793
0.0769162 0.113267 0.092793
0.0767004 0.113239 0.0929773
0.076441 0.113234 0.0931229
0.0759091 0.113368 0.0930262
0.0756897 0.113343 0.0932069
0.0754456 0.11333 0.0933656
0.0752371 0.113298 0.093556
0.0749566 0.113304 0.0936821
0.0747162 0.113289 0.0938439
0.0746178 0.113201 0.0941326
0.0741793 0.113289 0.0941171
0.0737896 0.113351 0.0941449
0.0735647 0.113329 0.0943202
0.0681053 0.113523 0.0965608
0.0677446 0.113572 0.0966103
0.0675828 0.113517 0.0968413
0.067236 0.113559 0.0969031
0.0669557 0.113566 0.0970256
0.0666787 0.113572 0.097151
0.0663863 0.113586 0.0972621
0.0660333 0.113631 0.0973174
0.0657831 0.113623 0.097467
0.0655683 0.113596 0.097649
0.0652684 0.113614 0.0977526
0.064946 0.113644 0.0978354
0.0647466 0.113609 0.0980315
0.0645172 0.11359 0.0981998
0.0640444 0.113699 0.098143
0.0639369 0.113616 0.0984239
0.0635252 0.113693 0.098423
0.0633008 0.113672 0.0985956
0.0630622 0.113658 0.0987549
0.0627882 0.113662 0.0988812
0.0624511 0.113701 0.0989487
0.0622925 0.113644 0.0991823
0.062033 0.113642 0.0993218
0.0616952 0.11368 0.0993882
0.0614269 0.113682 0.0995193
0.0611555 0.113686 0.0996473
0.0609388 0.113661 0.0998264
0.0791744 0.112932 0.0917308
0.0788872 0.11294 0.0918529
0.0786343 0.112931 0.0920051
0.0782976 0.112965 0.0920833
0.0780787 0.112939 0.0922653
0.0777295 0.11298 0.0923321
0.0775319 0.112942 0.0925328
0.0772325 0.112957 0.0926432
0.076954 0.112962 0.0927721
0.0767464 0.11293 0.0929638
0.0762161 0.113064 0.092869
0.0761792 0.112944 0.0932121
0.0758784 0.11296 0.0933207
0.0754875 0.113023 0.0933489
0.0753577 0.112951 0.0936095
0.0749733 0.113011 0.0936431
0.0747825 0.11297 0.0938492
0.0745388 0.112957 0.0940081
0.0742048 0.112991 0.0940863
0.0740313 0.112941 0.0943078
0.0735987 0.113026 0.0942972
0.0733968 0.112992 0.0944932
0.0732475 0.11293 0.0947363
0.0730267 0.112905 0.0949154
0.0728466 0.112859 0.095131
0.0726001 0.112848 0.0952869
0.0722818 0.112874 0.095378
0.0721531 0.112801 0.09564
0.0720044 0.112739 0.095884
0.0716711 0.112773 0.0959612
0.0713226 0.112815 0.0960244
0.0711201 0.112781 0.0962196
0.0683923 0.113228 0.0963916
0.0680496 0.113267 0.0964577
0.0678268 0.113244 0.0966332
0.0676173 0.113214 0.0968208
0.0672533 0.113266 0.096867
